# .PCD v0.7 - Point Cloud Data file format
VERSION 0.7
FIELDS x y z
SIZE 4 4 4
TYPE F F F
COUNT 1 1 1
WIDTH 1551
HEIGHT 1
VIEWPOINT 0 0 0 1 0 0 0
POINTS 1551
DATA ascii
0.16865902 0.31831741 1.3546251
0.17521495 0.31876555 1.3563956
0.18207793 0.31972176 1.3603075
0.18847932 0.31983036 1.3605922
0.19528611 0.32059729 1.3636545
0.200541 0.31884855 1.3559933
0.2058849 0.31734386 1.3493464
0.21262649 0.31801888 1.3519412
0.21857172 0.31749821 1.3494245
0.22280645 0.31459159 1.33674
0.22915874 0.31475163 1.3370572
0.2364009 0.31609312 1.3423576
0.24431626 0.31824219 1.351047
0.25054979 0.31814751 1.3501707
0.25659293 0.31782162 1.3482741
0.26240852 0.3172363 1.3452365
0.26898345 0.31757489 1.3460742
0.27628234 0.31873319 1.3503375
0.27972683 0.31549251 1.3359208
0.28643566 0.31599471 1.3373098
0.29266649 0.31595942 1.3363713
0.29831919 0.3153145 1.3328029
0.30645528 0.31726706 1.3401538
0.3138586 0.31839776 1.3439662
0.3167181 0.31496516 1.3284637
0.32589123 0.31782264 1.3394305
0.3325536 0.31816953 1.3397408
0.33946076 0.31873339 1.340894
0.34592149 0.31886512 1.3401567
0.35226333 0.31888446 1.3388746
0.35760719 0.31801566 1.333793
0.36339071 0.31756121 1.3303792
0.37122819 0.31888649 1.3343388
0.37891552 0.32004064 1.3374891
0.38649058 0.32106355 1.3399961
0.3937996 0.32183588 1.3413624
0.39891648 0.32082054 1.3351926
0.40462276 0.32030374 1.3310186
0.41150773 0.32072148 1.3306391
0.41784567 0.32070664 1.3283713
0.42533356 0.32156169 1.3296092
0.43189183 0.32169902 1.3277799
0.43775833 0.32132459 1.3237478
0.44522309 0.32211724 1.3244286
0.45390534 0.32375586 1.3284765
0.46021521 0.32368025 1.325388
0.4678801 0.32454664 1.3260626
0.4758788 0.32561791 1.3274738
0.48133793 0.32494611 1.3216957
0.4877466 0.32492453 1.318496
0.49595475 0.32608673 1.3200227
0.50526422 0.32793385 1.3242346
0.51352841 0.32906416 1.3254751
0.51975381 0.32887611 1.3213603
0.52744305 0.32960752 1.3209136
0.53261566 0.32876751 1.314165
0.53431195 0.32582802 1.2990758
0.53366327 0.32154575 1.2787391
nan nan nan
nan nan nan
nan nan nan
0.30842537 0.17736122 0.69855434
nan nan nan
nan nan nan
nan nan nan
nan nan nan
nan nan nan
nan nan nan
nan nan nan
nan nan nan
nan nan nan
nan nan nan
nan nan nan
nan nan nan
nan nan nan
nan nan nan
nan nan nan
0.29297516 0.14248975 0.55417597
0.3006826 0.14484197 0.56388599
nan nan nan
0.30463183 0.14399454 0.56201965
0.31096596 0.14562418 0.56925541
-0.71617365 0.31966007 1.2468048
-0.7210148 0.32463717 1.2629399
-0.71984857 0.32697353 1.2688656
-0.70677364 0.32389408 1.2539294
-0.7051661 0.32606164 1.2594736
-0.70334959 0.32817107 1.2649243
-0.69647652 0.3279382 1.2615087
-0.6969046 0.33117053 1.2715888
-0.69171542 0.3317689 1.2717277
-0.69612932 0.33702779 1.2899052
-0.68236476 0.33350202 1.2746712
-0.67037016 0.330782 1.262778
-0.6611836 0.32940829 1.2562802
-0.65847975 0.33126903 1.2623639
-0.65536362 0.33295703 1.2680371
-0.64598566 0.33146566 1.2618665
-0.63593352 0.32959485 1.2545265
-0.63429731 0.3320922 1.2640901
-0.63152027 0.33403745 1.2718354
-0.62688452 0.33502969 1.2762401
-0.62352133 0.33673009 1.2836325
-0.61934084 0.3380205 1.2897521
-0.60863954 0.33574149 1.2825224
-0.60545099 0.33760229 1.291369
-0.59729141 0.33670154 1.2899088
-0.58893299 0.33566758 1.2881607
-0.58241308 0.33567005 1.2905996
-0.57438117 0.33479127 1.2898386
-0.57423514 0.33854145 1.3071085
-0.56621182 0.33768067 1.3067504
-0.55778897 0.33655867 1.3054903
-0.55021787 0.33593002 1.3062291
-0.54356509 0.33585379 1.309188
-0.53614074 0.33529302 1.3103076
-0.52497768 0.33235165 1.3021238
-0.51764911 0.33179477 1.3032622
-0.51156586 0.33203208 1.3075144
-0.50536454 0.33219787 1.3114702
-0.49765125 0.33136117 1.3114295
-0.48869708 0.32966554 1.30792
-0.48220339 0.32960662 1.3108319
-0.47582108 0.32962322 1.3139808
-0.46724048 0.32809675 1.3108934
-0.45908099 0.32682773 1.3087337
-0.45322865 0.32718876 1.3130121
-0.44677201 0.3271175 1.3154739
-0.44026351 0.32700571 1.3176837
-0.43253833 0.32597372 1.3160877
-0.42585564 0.32570839 1.317487
-0.42009899 0.32615399 1.3216729
-0.41415483 0.32646543 1.3252299
-0.40640679 0.32534248 1.3228686
-0.39960983 0.32495752 1.3234087
-0.39249292 0.32429573 1.3227268
-0.38664839 0.32468086 1.3262266
-0.38109344 0.32532594 1.3307089
-0.37456799 0.32515034 1.3317535
-0.3646031 0.32193184 1.3202353
-0.35904428 0.32255924 1.3243967
-0.35226083 0.32208923 1.3239759
-0.34475487 0.32092956 1.3206376
-0.33778584 0.32023627 1.3191378
-0.33377692 0.32237595 1.3292433
-0.32511804 0.32002044 1.3207451
-0.31849766 0.31961867 1.3202336
-0.31205335 0.31938115 1.3203348
-0.30720538 0.32080099 1.3272295
-0.30028641 0.32007217 1.325178
-0.29239991 0.31825942 1.3185742
-0.28715786 0.31930885 1.3237714
-0.28105065 0.31942141 1.3250345
-0.27412251 0.31858489 1.3223085
-0.2677975 0.31842694 1.3223478
-0.26166052 0.31849036 1.3232599
-0.25526839 0.31823874 1.3228182
-0.24926509 0.31847143 1.3243469
-0.24402012 0.31970951 1.330018
-0.23810622 0.32011297 1.3321811
-0.23155916 0.31966397 1.3307592
-0.22614978 0.32080418 1.3359188
-0.219933 0.32083112 1.3364103
-0.21219066 0.3185693 1.3273339
-0.20580304 0.31826657 1.3263873
-0.20044298 0.31958336 1.3321631
-0.19445851 0.31995699 1.3339816
-0.18809375 0.31970894 1.3331838
-0.18191953 0.31977889 1.3336879
-0.17514342 0.31875825 1.3296212
-0.1690539 0.31895822 1.3306248
-0.16304938 0.31933996 1.3323679
-0.15711796 0.31990066 1.3348403
-0.15162268 0.3214322 1.3413483
-0.14516847 0.32097512 1.3395425
-0.13948342 0.322254 1.3449678
-0.13362482 0.3232334 1.349131
-0.12751544 0.3236728 1.3510292
-0.12136559 0.32404974 1.352656
-0.11535063 0.32484788 1.3560318
-0.10925323 0.32549277 1.3587599
-0.10302915 0.32581648 1.3601393
-0.096917786 0.3265622 1.3632743
-0.090355285 0.32578591 1.3600497
-0.083760798 0.32476854 1.3558139
-0.077931583 0.32679448 1.3642784
-0.071519516 0.32651889 1.3631322
-0.065145008 0.32637787 1.3625444
-0.058837872 0.32658029 1.3633889
-0.052503377 0.32666153 1.3637255
-0.046164222 0.32673207 1.364017
-0.039868638 0.32718274 1.3658942
-0.033505723 0.32714701 1.3657414
-0.027116062 0.32677224 1.3641728
-0.02080488 0.32740328 1.3668039
-0.014406721 0.32661846 1.363525
-0.0080301985 0.32547414 1.3587461
-0.0017035621 0.32536176 1.3582761
0.0046527386 0.32764602 1.3678122
0.01106727 0.32902157 1.3735561
0.017468633 0.32914153 1.3740591
0.023718502 0.32710788 1.365572
0.030066822 0.32700473 1.3651452
0.036390197 0.32671365 1.363934
0.042468116 0.32463279 1.355251
0.048885144 0.3253471 1.3582364
0.055340715 0.32612494 1.3614868
0.061941609 0.32751125 1.3672761
0.068288125 0.32741958 1.3668933
0.07475394 0.32786673 1.3687575
0.080843851 0.32672447 1.3639836
0.087625146 0.32833925 1.3707157
0.094039895 0.32845458 1.3711836
0.099777043 0.32633898 1.3623333
0.10558613 0.32469755 1.3554565
0.11154593 0.32367858 1.3511711
0.11774518 0.32342616 1.350078
0.12382396 0.32288516 1.3477714
0.12951729 0.32143974 1.3416804
0.13517997 0.32005477 1.3358309
0.14141507 0.32008737 1.3358864
0.14747636 0.31974033 1.3343443
0.15396887 0.32031852 1.3366488
0.16088086 0.3216905 1.3422492
0.16746147 0.32232201 1.3447419
0.17373168 0.32233208 1.3446233
0.17987595 0.3221159 1.3435411
0.18373454 0.31795889 1.3260027
0.18917902 0.31672749 1.3206464
0.19716127 0.31968859 1.3327456
0.20430367 0.3211486 1.3385576
0.21106853 0.32194614 1.3415787
0.21680127 0.32116881 1.338008
0.22130498 0.31866527 1.3272188
0.22675702 0.31762639 1.3225012
0.23480235 0.32017884 1.3327006
0.24299636 0.32279694 1.3431299
0.24933578 0.32288164 1.342976
0.25414401 0.32102802 1.3347224
0.26064289 0.32134765 1.3354651
0.26713389 0.32164285 1.3360614
0.27245647 0.32054982 1.330847
0.27827945 0.32008129 1.3281808
0.28506795 0.32071951 1.3300569
0.2915799 0.32102591 1.3305026
0.29775968 0.32096151 1.3293566
0.30442914 0.32141665 1.3303053
0.31262714 0.32343492 1.3376576
0.31678948 0.32128069 1.3276932
0.32329571 0.32154098 1.32765
0.33069539 0.32266313 1.3310953
0.33768365 0.32334954 1.3326691
0.34477276 0.32410571 1.3344545
0.35067332 0.32373747 1.3315367
0.3561835 0.32302809 1.3271465
0.36121213 0.32191423 1.3210269
0.3666943 0.32123557 1.3166239
0.37635338 0.32417747 1.3269684
0.37909424 0.32116154 1.3128442
0.3885864 0.32387021 1.3220385
0.39623633 0.3249816 1.3246045
0.40372792 0.32593033 1.3264076
0.41014042 0.32599199 1.3245054
0.41703221 0.32642689 1.3240263
0.42317283 0.32626963 1.321053
0.42999661 0.32663599 1.3201077
0.43598032 0.32636282 1.3164867
0.44313365 0.3269605 1.316286
0.45053554 0.32772204 1.316646
0.45732972 0.32802644 1.3150743
0.46445739 0.32855844 1.3143246
0.471315 0.32888752 1.3126763
0.47889876 0.32970771 1.312904
0.48728827 0.33105373 1.3151371
0.49580094 0.3324472 1.3174731
0.50348753 0.33325806 1.3174285
0.50812966 0.33205879 1.3094014
0.5175826 0.33399391 1.3137009
0.5245142 0.33427432 1.311458
0.52985799 0.33354828 1.3052764
0.53237098 0.33107939 1.2923299
nan nan nan
nan nan nan
nan nan nan
nan nan nan
nan nan nan
nan nan nan
nan nan nan
nan nan nan
nan nan nan
nan nan nan
nan nan nan
nan nan nan
nan nan nan
nan nan nan
nan nan nan
0.28602764 0.14905281 0.56733334
nan nan nan
nan nan nan
0.27766013 0.14042547 0.53493184
0.27517673 0.13781479 0.52535093
0.28509572 0.14140598 0.53952205
0.29375556 0.14431003 0.55119979
nan nan nan
0.3095935 0.14924055 0.57158035
0.30562678 0.14596081 0.55991995
-0.73623723 0.33500245 1.2832679
-0.72066635 0.33078706 1.2638001
-0.7134369 0.33035976 1.2589811
-0.70524633 0.32947588 1.2525767
-0.69864553 0.32932547 1.2491218
-0.69759327 0.33181152 1.255808
-0.69664699 0.33439401 1.2629895
-0.68929708 0.33392188 1.2587986
-0.69292831 0.33881032 1.274977
-0.67991453 0.33557549 1.2607768
-0.67687029 0.33724657 1.2652293
-0.66531998 0.33467087 1.2539743
-0.65851283 0.3344543 1.251802
-0.65766424 0.33728945 1.2612815
-0.65707463 0.34031466 1.2717044
-0.6470294 0.3384541 1.2641257
-0.63620776 0.33614582 1.2551469
-0.63095069 0.33676061 1.2573552
-0.62645096 0.33779642 1.2614108
-0.62133646 0.33851877 1.264576
-0.61220527 0.33704492 1.2598134
-0.61503923 0.34219706 1.2801049
-0.60502487 0.3402344 1.2740631
-0.59814197 0.34000933 1.2747841
-0.5932368 0.34091577 1.2800038
-0.5876168 0.341427 1.2839875
-0.57867324 0.33999693 1.2808872
-0.57245272 0.34015247 1.2839553
-0.56901753 0.34198564 1.2935536
-0.56152844 0.34139657 1.2941605
-0.55403703 0.34079233 1.294837
-0.54750502 0.34077084 1.2978361
-0.54156423 0.34112126 1.3023448
-0.53396171 0.34042072 1.3029058
-0.52278864 0.33739859 1.2945919
-0.5146783 0.33630243 1.2936538
-0.50737411 0.33571208 1.2946528
-0.50018013 0.33518043 1.2958581
-0.49219218 0.33409607 1.2948878
-0.48475859 0.33336458 1.295231
-0.47918454 0.33390939 1.3004839
-0.47358775 0.33445275 1.3056846
-0.46400836 0.33216006 1.2997322
-0.45708162 0.33172902 1.3009691
-0.4507269 0.33170697 1.3037295
-0.44566694 0.33265063 1.3102126
-0.43836516 0.33192414 1.310035
-0.42974046 0.33015996 1.3056562
-0.42421213 0.33075756 1.3105206
-0.41667309 0.3297818 1.3090601
-0.40986514 0.32936361 1.3097142
-0.40480116 0.33035564 1.3158915
-0.39696577 0.32908157 1.3129523
-0.38995242 0.32845905 1.3125138
-0.38266388 0.32758057 1.3109576
-0.37828186 0.32920232 1.3193271
-0.37042487 0.32780367 1.3155106
-0.36417055 0.32779968 1.3172021
-0.35728016 0.32721299 1.3164705
-0.3502667 0.32649067 1.3151094
-0.3431237 0.32561934 1.3130664
-0.33534908 0.32410544 1.3083487
-0.32880706 0.32374841 1.308223
-0.32289553 0.32401028 1.3105296
-0.31628719 0.32356957 1.3099282
-0.31042567 0.32389045 1.3123456
-0.30386326 0.32347831 1.3117311
-0.29757786 0.3233501 1.3122065
-0.29012263 0.32191837 1.3073304
-0.28300124 0.32080325 1.3036777
-0.27859873 0.32278895 1.3125758
-0.27217093 0.32246485 1.3120342
-0.26649866 0.32304159 1.3151098
-0.2611804 0.32408491 1.3200415
-0.2540791 0.32291263 1.3159034
-0.24778074 0.32272801 1.3157443
-0.24248743 0.32387635 1.3209804
-0.23646006 0.32407865 1.3223203
-0.22909926 0.32241523 1.3160082
-0.22439991 0.32450888 1.3249961
-0.21790683 0.32405373 1.3235452
-0.21053728 0.32223061 1.3164721
-0.20358062 0.32094881 1.3115768
-0.19835559 0.32240212 1.3178298
-0.19301277 0.32375082 1.3236308
-0.18746303 0.32483 1.3283062
-0.18090837 0.32418221 1.3258958
-0.17463601 0.32401234 1.3254167
-0.16825786 0.32362652 1.3240327
-0.16198622 0.32342401 1.3233783
-0.15646505 0.32476318 1.3290142
-0.15037665 0.32498682 1.3300686
-0.14452408 0.32576126 1.3333617
-0.13852876 0.32626903 1.335549
-0.13300714 0.32799268 1.3427006
-0.12696223 0.32853228 1.3449934
-0.12039419 0.32770404 1.3416747
-0.11402278 0.32734957 1.3402852
-0.1082451 0.32875738 1.3461019
-0.10228284 0.32974312 1.3501823
-0.095926188 0.3295033 1.3492373
-0.089339577 0.32838452 1.3446867
-0.083414078 0.32971042 1.3501407
-0.077267811 0.33030862 1.3526101
-0.071002014 0.3304567 1.3532318
-0.064775698 0.33083522 1.3547938
-0.058492418 0.33097312 1.3553673
-0.052167751 0.33088183 1.355
-0.045861822 0.3309007 1.3550817
-0.039487198 0.33035088 1.3528332
-0.03320672 0.33052939 1.3535659
-0.027120473 0.33317772 1.3644122
-0.020570932 0.33001363 1.3514555
-0.01432852 0.33115938 1.3561474
-0.0080064824 0.33082032 1.3547589
-0.0016946909 0.32995838 1.3512292
0.0045964937 0.3299765 1.3513033
0.010937582 0.33148611 1.3574854
0.017274352 0.33180708 1.3587999
0.023647208 0.33246335 1.3614872
0.02987366 0.33121884 1.3563899
0.036143444 0.33080536 1.3546954
0.042316452 0.32976058 1.3504144
0.048680641 0.33028319 1.3525512
0.05509682 0.33099842 1.3554747
0.061274204 0.33027947 1.352523
0.067701913 0.33091816 1.3551283
0.074071378 0.33118743 1.3562176
0.080026299 0.32970652 1.3501358
0.086051442 0.32870954 1.3460317
0.093072131 0.33139271 1.3569913
0.099230401 0.33085921 1.3547732
0.10544215 0.33055714 1.3534961
0.11106358 0.32854289 1.3452002
0.11700918 0.32765147 1.3414938
0.12312045 0.32729077 1.3399508
0.12912826 0.32670316 1.337468
0.13501184 0.32586971 1.3339677
0.14087687 0.32506683 1.3305798
0.14642754 0.32363683 1.3246115
0.15288119 0.32423756 1.3269401
0.15989181 0.3259269 1.3337063
0.16627283 0.32625452 1.3348813
0.17255929 0.3263796 1.3352082
0.1784786 0.32582575 1.3327373
0.18401359 0.32463112 1.3276246
0.1893512 0.32317737 1.3214304
0.19558443 0.32329571 1.3216406
0.20188493 0.32351458 1.3222352
0.20785724 0.32321018 1.320663
0.21420009 0.3234829 1.3214194
0.21984433 0.32271487 1.3178937
0.22649811 0.32343018 1.3203926
0.2326694 0.32343689 1.3199631
0.24069364 0.32595256 1.3297323
0.246433 0.32532522 1.326638
0.25155821 0.32393786 1.3204075
0.25854102 0.32495168 1.3239229
0.2654089 0.32577708 1.3266226
0.27150616 0.32564038 1.3253567
0.27735868 0.32522282 1.322901
0.28417057 0.32592389 1.3249444
0.29032949 0.32586205 1.323832
0.29699805 0.32636288 1.3249501
0.30402479 0.32722864 1.327489
0.31044316 0.32741788 1.3272213
0.31542292 0.32611239 1.320837
0.32024139 0.32469377 1.3139408
0.32743096 0.32568747 1.3167431
0.33546773 0.32747117 1.3226613
0.34189698 0.32764918 1.3220161
0.34710246 0.3266691 1.31663
0.35274792 0.32613027 1.3129555
0.36102295 0.3279992 1.3188915
0.36486316 0.32584393 1.3085704
0.3700771 0.32496709 1.3033195
0.37665349 0.32529578 1.3028249
0.38399699 0.32626566 1.3048084
0.39374223 0.32921273 1.3145909
0.40116403 0.3301551 1.3162583
0.40938193 0.33171347 1.3202772
0.41465259 0.3308726 1.3146536
0.4219383 0.33164081 1.3153347
0.42709363 0.33073661 1.3092951
0.434396 0.33149707 1.3097584
0.44230524 0.33269233 1.3118367
0.44893974 0.33290839 1.3099575
0.45527324 0.33289838 1.3071043
0.46010342 0.33180454 1.2999259
0.46843031 0.33322787 1.3025316
0.47644868 0.33439651 1.3040502
0.48604214 0.33662516 1.3096094
0.49266091 0.3367624 1.3069571
0.49737486 0.33561075 1.2992696
0.50768983 0.33821976 1.3060957
0.51357174 0.33784705 1.3013685
0.52302784 0.33980572 1.3056049
0.52362972 0.3360343 1.2878587
0.52431208 0.33240515 1.2707638
nan nan nan
nan nan nan
0.27056479 0.16553107 0.62826133
nan nan nan
nan nan nan
nan nan nan
nan nan nan
nan nan nan
nan nan nan
nan nan nan
nan nan nan
nan nan nan
nan nan nan
nan nan nan
nan nan nan
0.28487623 0.15133817 0.5650506
0.2877306 0.15132186 0.56508541
nan nan nan
nan nan nan
0.27698836 0.14141835 0.52903485
0.28607565 0.14464986 0.54165721
0.29337332 0.14692345 0.55081588
nan nan nan
nan nan nan
0.30149478 0.14678603 0.55280942
-0.72485203 0.33611026 1.2649797
-0.71606207 0.33494014 1.2572361
-0.70910829 0.3346158 1.2528032
-0.70387989 0.33510709 1.2515578
-0.69768113 0.33514106 1.2487454
-0.69416779 0.3364774 1.250929
-0.69114357 0.33807743 1.2542336
-0.68910617 0.34019417 1.2596015
-0.67867124 0.33816609 1.2498051
-0.678514 0.34126917 1.2591597
-0.6715501 0.34097517 1.2561666
-0.6593442 0.33798835 1.2434828
-0.65797764 0.340554 1.2514509
-0.65852535 0.34417015 1.2634876
-0.65342486 0.34487671 1.2650701
-0.63893682 0.34059319 1.2486084
-0.63399869 0.34136534 1.2509451
-0.62830955 0.34174469 1.2521049
-0.62146205 0.34149536 1.2512298
-0.61420649 0.3410143 1.249777
-0.61310226 0.34397426 1.2612126
-0.61273468 0.3474147 1.2746975
-0.60251784 0.34528461 1.2680181
-0.59516406 0.3447668 1.2675155
-0.58997267 0.34550405 1.2718837
-0.58373183 0.34563625 1.2742717
-0.57788217 0.34600562 1.2777658
-0.56931096 0.34473538 1.2754098
-0.56185555 0.34411943 1.2756524
-0.55740744 0.34535238 1.2829242
-0.55044782 0.34504002 1.2846099
-0.54241532 0.34403968 1.2838486
-0.53748548 0.34500691 1.2905312
-0.52782977 0.34292728 1.2858864
-0.51992565 0.34194848 1.285399
-0.51145881 0.34057057 1.2834264
-0.50273436 0.33898419 1.2806586
-0.49688742 0.33932233 1.2851504
-0.49007377 0.33900052 1.2871292
-0.48093659 0.337042 1.2828439
-0.47564158 0.3377597 1.288694
-0.46908912 0.33759183 1.2911203
-0.46281397 0.33762163 1.2942426
-0.45571169 0.3370406 1.2949525
-0.44857529 0.33641765 1.2954195
-0.44071385 0.3352254 1.2936026
-0.43458173 0.33533317 1.2967132
-0.42952681 0.33628747 1.3030227
-0.42059925 0.33419305 1.2974262
-0.4132852 0.33333683 1.2965286
-0.40672907 0.33307502 1.2978482
-0.40121785 0.33367407 1.3024383
-0.39477578 0.33350569 1.3039491
-0.38665286 0.33188915 1.299701
-0.38040662 0.331857 1.3015625
-0.37515572 0.33270648 1.3068031
-0.36980474 0.33349434 1.3117288
-0.36210182 0.33215183 1.3081919
-0.3536599 0.33007279 1.3016579
-0.34789386 0.33046159 1.3047707
-0.34054023 0.32932913 1.3017992
-0.33358392 0.32854632 1.3001286
-0.32712445 0.32823262 1.3002396
-0.32107115 0.32832223 1.3018792
-0.31488058 0.32827225 1.3028995
-0.30825761 0.32776049 1.302021
-0.30120334 0.32676011 1.2991345
-0.29504269 0.32670781 1.2999538
-0.28810114 0.32577023 1.2971911
-0.28282279 0.32671347 1.3018619
-0.27646181 0.32642016 1.3015541
-0.27014068 0.32616162 1.301332
-0.26477557 0.32707211 1.3057266
-0.26004875 0.32883289 1.3134742
-0.25363779 0.32849768 1.3128072
-0.24669223 0.32743636 1.3091918
-0.23990925 0.32654214 1.3061996
-0.2339323 0.32672706 1.3074826
-0.22925453 0.32878506 1.3162272
-0.22270021 0.32819113 1.3143209
-0.21678796 0.32853651 1.3161416
-0.20902586 0.32601687 1.3064491
-0.20268123 0.32562304 1.305241
-0.19695379 0.3262271 1.3080035
-0.19182912 0.32790014 1.3150268
-0.1857986 0.32808411 1.3160535
-0.17875254 0.32642618 1.3096658
-0.17344451 0.32793716 1.3159685
-0.16743331 0.32818058 1.3171643
-0.16105501 0.3276957 1.315416
-0.15519202 0.32826233 1.3178698
-0.14956677 0.32939935 1.3225961
-0.14318927 0.32890612 1.3207605
-0.13728976 0.32951581 1.3233385
-0.1315939 0.33069462 1.3281881
-0.12575068 0.3316012 1.3319319
-0.1195987 0.33174548 1.332602
-0.1130588 0.33077049 1.3287648
-0.10697094 0.33108184 1.3300848
-0.10156576 0.33367413 1.3405595
-0.095147334 0.33305916 1.338141
-0.088610969 0.3319163 1.3335936
-0.082623586 0.33281249 1.3372324
-0.076390013 0.33278221 1.3371429
-0.070037387 0.33218199 1.3347579
-0.06423264 0.33431643 1.343357
-0.058060583 0.33479333 1.3452919
-0.05134555 0.33187604 1.3335843
-0.045172557 0.33214167 1.3346637
-0.039049242 0.33291546 1.3377827
-0.032957122 0.33429945 1.3433516
-0.026741209 0.33478191 1.3452963
-0.020469239 0.3346431 1.3447427
-0.014107295 0.33226281 1.3351808
-0.007954252 0.33492833 1.345894
-0.0016894665 0.33521274 1.3470373
0.004578162 0.33492666 1.3458877
0.010829754 0.3344759 1.344075
0.017106902 0.33485553 1.3455979
0.023552066 0.33743891 1.3559757
0.029816944 0.33689302 1.3537772
0.035876989 0.33462724 1.3446659
0.042192817 0.33506593 1.3464199
0.048481546 0.33520374 1.346963
0.054739609 0.33512229 1.3466222
0.060894322 0.33448982 1.3440641
0.067418121 0.33581376 1.3493637
0.073697843 0.33579978 1.3492829
0.079513468 0.33383951 1.341377
0.085733116 0.33373752 1.3409326
0.092140511 0.33433062 1.3432744
0.098818243 0.33576688 1.3489964
0.10409733 0.33256313 1.3360693
0.11070353 0.33372146 1.3406579
0.11520385 0.32874671 1.3205998
0.1212232 0.32839122 1.3190882
0.12778796 0.3294763 1.3233515
0.13430548 0.3303453 1.3267335
0.14026994 0.32983732 1.3245716
0.14569002 0.32814607 1.3176436
0.15186389 0.32822075 1.3177916
0.15952238 0.3313736 1.3302792
0.16414364 0.32821736 1.3174211
0.17099935 0.32959557 1.3227445
0.17775396 0.33068976 1.3269054
0.18361089 0.33009654 1.3242722
0.18916264 0.32901108 1.3196414
0.19460268 0.32780588 1.3145068
0.20065163 0.32766867 1.3136289
0.20702541 0.32805434 1.3148185
0.21222995 0.32661834 1.3086778
0.21954519 0.32842016 1.315478
0.22569531 0.32842842 1.315058
0.23209217 0.32878578 1.316
0.23722897 0.32738572 1.3098723
0.24354033 0.3276363 1.3103114
0.24952416 0.32744476 1.308942
0.25680116 0.32891873 1.3141851
0.26366511 0.32980704 1.3170391
0.2701762 0.33022341 1.3179584
0.27661851 0.33053908 1.3184254
0.28195557 0.32954904 1.3136357
0.28897482 0.33052546 1.3166317
0.2940149 0.32924461 1.310582
0.30201197 0.33125979 1.3175929
0.30824888 0.33130202 1.3166912
0.31270832 0.32946986 1.3082848
0.31747696 0.32802805 1.3013767
0.32484776 0.32927856 1.3050855
0.33155191 0.32981935 1.3059072
0.33974856 0.33179796 1.312342
0.34547997 0.33134124 1.3090658
0.34978068 0.32955256 1.3004644
0.35616261 0.32975283 1.2996434
0.36468744 0.33189648 1.3063927
0.3709037 0.33190256 1.3046378
0.37664685 0.33149201 1.3011658
0.38271257 0.33137411 1.2987636
0.38935357 0.33175009 1.2982117
0.39748442 0.33336377 1.3024056
0.40558997 0.33490673 1.3062164
0.41498509 0.33745134 1.3138194
0.41773948 0.33460069 1.3003316
0.42423221 0.33478424 1.2985681
0.42995933 0.33436713 1.2943913
0.44037467 0.33755553 1.3040661
0.44705445 0.3378309 1.3023775
0.45178184 0.33664379 1.2949793
0.45881057 0.33718055 1.2941437
0.46647045 0.33816037 1.2949257
0.47387075 0.33892822 1.2948182
0.48084232 0.33937326 1.2934111
0.48720038 0.33937928 1.2902811
0.49386606 0.33959672 1.2879181
0.50155526 0.34050351 1.2881372
0.50618917 0.33933926 1.2805165
0.51161999 0.33873153 1.2750214
0.51378655 0.33600396 1.261605
0.51651859 0.33370766 1.2499005
nan nan nan
nan nan nan
nan nan nan
nan nan nan
nan nan nan
nan nan nan
nan nan nan
nan nan nan
nan nan nan
nan nan nan
nan nan nan
nan nan nan
nan nan nan
nan nan nan
nan nan nan
0.28621975 0.15495092 0.56775177
nan nan nan
nan nan nan
0.27826753 0.14620332 0.5364849
0.2877008 0.1496882 0.54976052
0.29223549 0.15058178 0.55363798
0.29120621 0.14861867 0.5471074
nan nan nan
0.29282004 0.14664194 0.54146409
0.31394568 0.15576208 0.57614571
-0.7043764 0.33272651 1.230803
-0.71546978 0.34092432 1.2577546
-0.70318401 0.33802828 1.2438363
-0.694938 0.33703992 1.2371013
-0.69845647 0.34179068 1.2515379
-0.69316912 0.34227946 1.2504718
-0.68360382 0.34064543 1.2418182
-0.67846853 0.34120911 1.2413515
-0.6800046 0.34516966 1.2533871
-0.6716373 0.34413049 1.2474333
-0.6698724 0.34648672 1.2539757
-0.66267103 0.3460491 1.2506014
-0.6500234 0.34273151 1.2370515
-0.64279026 0.34223169 1.233911
-0.63899243 0.34356916 1.2376233
-0.63276744 0.34361517 1.2369192
-0.62873602 0.34486535 1.2407948
-0.62445384 0.34600207 1.2445139
-0.61816931 0.34604126 1.2445459
-0.61292291 0.34666839 1.2469589
-0.60935968 0.34827068 1.2531503
-0.6060192 0.35003564 1.2602025
-0.59975195 0.35012984 1.2615124
-0.593099 0.34999847 1.2622736
-0.58684385 0.35010153 1.2641369
-0.58039594 0.35009059 1.2658347
-0.57284033 0.34940383 1.2653183
-0.56615674 0.34923938 1.2669053
-0.56000435 0.34940258 1.2698799
-0.55260181 0.34878048 1.2701763
-0.54604942 0.34868672 1.2725492
-0.53518295 0.34580323 1.2648528
-0.52932537 0.34612575 1.2689747
-0.5212636 0.34499732 1.2678605
-0.51354206 0.34406906 1.2675332
-0.50728601 0.3441118 1.2708232
-0.5005331 0.34381428 1.2728838
-0.4935289 0.34333435 1.2742735
-0.48573714 0.34228703 1.2735389
-0.4779844 0.34124011 1.2727677
-0.47333103 0.34240741 1.2802247
-0.46519405 0.34105223 1.2782063
-0.45932865 0.34134817 1.2823149
-0.45598903 0.3435553 1.2935644
-0.44790128 0.34219673 1.2913293
-0.43971586 0.3407239 1.2885669
-0.43502861 0.34195825 1.2959644
-0.42609641 0.33984312 1.2905816
-0.41762447 0.33803758 1.2862628
-0.41115624 0.33782405 1.2879028
-0.40510976 0.33795568 1.2907746
-0.39800006 0.33719069 1.2901323
-0.39286485 0.33810073 1.2958153
-0.38477567 0.33645704 1.2916216
-0.37873921 0.33658388 1.2941319
-0.3737742 0.33768299 1.300305
-0.36632073 0.33653298 1.2977358
-0.35881323 0.33529305 1.294727
-0.35259542 0.33523607 1.2962013
-0.34581071 0.33462849 1.2954668
-0.3392067 0.33417687 1.295257
-0.33232966 0.33343467 1.293843
-0.32549077 0.33270368 1.2923959
-0.31891432 0.33221805 1.2918289
-0.31296787 0.33238256 1.2937222
-0.30506033 0.33042943 1.2873027
-0.29841223 0.32978895 1.2859263
-0.29247373 0.32992226 1.287506
-0.28635943 0.32985881 1.2882603
-0.28092426 0.33059177 1.2920715
-0.27393997 0.32949391 1.2886724
-0.26727605 0.32874042 1.286564
-0.26090637 0.32832238 1.2857162
-0.25633946 0.33020687 1.2938411
-0.2513366 0.33160749 1.3000313
-0.2455 0.33195031 1.3020343
-0.23859228 0.33082539 1.2982368
-0.23256804 0.33089876 1.2990991
-0.22681826 0.331377 1.3015136
-0.22115654 0.33201382 1.3045156
-0.21312971 0.32903543 1.2932751
-0.20751874 0.32972175 1.2964023
-0.20192471 0.33047703 1.299771
-0.19608109 0.33085793 1.3016386
-0.19006851 0.33096907 1.3024169
-0.18365756 0.3303709 1.3003767
-0.17714486 0.32954261 1.2974038
-0.17203949 0.3313663 1.3048488
-0.16556191 0.33058384 1.3020097
-0.15973641 0.33109343 1.3042378
-0.15399362 0.33182156 1.3073081
-0.14815916 0.33240408 1.3097863
-0.1419639 0.33219227 1.3091176
-0.13636775 0.33342645 1.3141316
-0.13055675 0.33422655 1.3174204
-0.12428995 0.3338812 1.3161805
-0.11811057 0.33374706 1.3157601
-0.11196557 0.33370072 1.3156738
-0.10649388 0.33577189 1.323926
-0.10036362 0.33589363 1.3244823
-0.09432736 0.33636644 1.3264135
-0.088030368 0.33591065 1.324675
-0.081727669 0.33536276 1.3225653
-0.075057656 0.33309549 1.3136678
-0.069303676 0.33485177 1.3206323
-0.063360743 0.3359482 1.3249896
-0.057092603 0.33537099 1.3227407
-0.051045019 0.3361063 1.3256648
-0.044866405 0.33606255 1.3255117
-0.038758211 0.3366164 1.3277125
-0.032766871 0.33858797 1.3355023
-0.026538417 0.33845907 1.3350043
-0.020287238 0.33787286 1.3327001
-0.014000464 0.33591595 1.3249869
-0.0078167543 0.33529669 1.3225482
-0.0016635353 0.33624288 1.3262818
0.0045519527 0.3392396 1.3381016
0.010758135 0.33848038 1.3351045
0.016940823 0.3378087 1.3324505
0.023357896 0.34091809 1.3447084
0.02956499 0.340296 1.3422455
0.035721429 0.33940974 1.3387378
0.041723434 0.33753747 1.3313384
0.047931623 0.33760181 1.3315743
0.054111507 0.33747491 1.3310523
0.060350519 0.3377049 1.3319337
0.066942602 0.33968365 1.3397075
0.072669074 0.33730707 1.330299
0.079082713 0.33824301 1.333949
0.085408896 0.33869576 1.3356866
0.091542237 0.33837423 1.3343638
0.097072646 0.33600655 1.3249648
0.10280692 0.33458546 1.31929
0.10866301 0.33369872 1.3157135
0.11450551 0.33286715 1.3123444
0.1206561 0.33297011 1.3126488
0.12724541 0.33421546 1.3174438
0.13347028 0.33443305 1.3181736
0.13883562 0.33257252 1.3106987
0.14418399 0.3308298 1.3036741
0.15054117 0.33144924 1.3059418
0.15740134 0.33308482 1.3121939
0.16310291 0.33223805 1.308647
0.16946179 0.33274293 1.3104038
0.17612056 0.33378112 1.3142377
0.18217233 0.33363774 1.3133951
0.18733552 0.33192921 1.3063682
0.1935683 0.33216384 1.306964
0.2001124 0.33290201 1.3095125
0.20591991 0.33240741 1.3071818
0.21251453 0.33317524 1.3097849
0.2163116 0.32963696 1.2954303
0.22361846 0.33149436 1.3022484
0.23032521 0.33238709 1.3052371
0.23575793 0.33144274 1.3009741
0.24113591 0.33047089 1.2965672
0.24927557 0.33323863 1.3067877
0.25503215 0.3327643 1.304247
0.26115713 0.33278161 1.303589
0.26818484 0.33392215 1.3072814
0.27356234 0.3330029 1.3028605
0.27858075 0.3316963 1.2968786
0.28578231 0.33298939 1.3010083
0.29181731 0.33289757 1.2996688
0.29860127 0.3336463 1.3015518
0.30621356 0.33527189 1.3067888
0.31127274 0.33409312 1.3010323
0.31698188 0.33364406 1.2980602
0.32353029 0.33407864 1.2984604
0.3313849 0.3358207 1.303866
0.33613154 0.33440718 1.2969491
0.34271169 0.33483568 1.2971087
0.34767315 0.33369544 1.2911214
0.35520241 0.33501658 1.2945814
0.36414462 0.33760273 1.3028325
0.37143597 0.33859739 1.3048439
0.37649032 0.33755359 1.2989192
0.38127202 0.33630311 1.2921304
0.38725293 0.33613351 1.2894195
0.39443889 0.33699873 1.2905904
0.40314883 0.33911911 1.2964637
0.4102183 0.33981603 1.2967916
0.41450471 0.33822128 1.2882954
0.42066252 0.33817807 1.2856364
0.42790103 0.33899218 1.2861487
0.43500781 0.33968014 1.2860901
0.44382581 0.34166595 1.2908459
0.44995841 0.34155795 1.2876016
0.45520711 0.3407912 1.2818114
0.4637931 0.34250981 1.2852975
0.47094929 0.34314066 1.2846247
0.47722638 0.34312275 1.2814695
0.48364618 0.34320664 1.2786564
0.4917962 0.34450033 1.2803121
0.49848297 0.34474924 1.2780579
0.50430018 0.34439799 1.2735828
0.50802869 0.34264672 1.2639691
0.51086354 0.34034297 1.2523923
0.50639379 0.33328727 1.2234699
nan nan nan
nan nan nan
nan nan nan
nan nan nan
nan nan nan
nan nan nan
nan nan nan
nan nan nan
nan nan nan
nan nan nan
nan nan nan
0.30049002 0.17271748 0.62164336
nan nan nan
nan nan nan
nan nan nan
nan nan nan
nan nan nan
0.28185445 0.15235615 0.54860431
0.28249723 0.15120254 0.54488248
0.29193282 0.15473181 0.5581491
0.29356837 0.15409869 0.55651355
0.28569666 0.14853476 0.53713936
nan nan nan
0.28746986 0.14665602 0.53202963
0.27829829 0.14065917 0.5112012
-0.71755624 0.34517729 1.2554603
-0.7102282 0.3446421 1.2501347
-0.68690073 0.336265 1.216548
-0.68506855 0.33835527 1.2210073
-0.69457042 0.34613127 1.2460271
-0.69180626 0.3478803 1.2494113
-0.67903072 0.34458092 1.2348285
-0.6697498 0.34301031 1.2266388
-0.66575688 0.34414396 1.2282909
-0.6658181 0.34741428 1.2377166
-0.66549343 0.3505435 1.2467872
-0.6437729 0.34235454 1.2158256
-0.64988506 0.34895161 1.2375889
-0.64173692 0.34794584 1.2325761
-0.6357584 0.34810814 1.231928
-0.63131487 0.34912258 1.234524
-0.62730688 0.35040069 1.2382871
-0.62143904 0.35065541 1.2386793
-0.61526644 0.35074162 1.2387302
-0.61044419 0.35160744 1.2417942
-0.60615146 0.35279959 1.2462751
-0.60136282 0.35372537 1.2500827
-0.59622079 0.35446087 1.253486
-0.58887821 0.35388985 1.2525318
-0.58459109 0.35516265 1.2583623
-0.5771445 0.35452288 1.2576667
-0.56999964 0.35405627 1.2578164
-0.56315607 0.35376835 1.2588192
-0.55574679 0.35311431 1.2587199
-0.54884273 0.35276985 1.2599044
-0.54109049 0.35186577 1.259249
-0.53395933 0.35134894 1.2601147
-0.52608025 0.35032159 1.2592615
-0.5194394 0.35010388 1.2614106
-0.51156306 0.34903777 1.2605735
-0.50427926 0.34835452 1.2611638
-0.49908477 0.34911543 1.2670242
-0.49068522 0.34762523 1.2647305
-0.48310184 0.34668213 1.264411
-0.47663599 0.34652683 1.2669457
-0.46963054 0.34596986 1.2679826
-0.46376127 0.34624609 1.2720363
-0.45959577 0.3478193 1.2808262
-0.45347446 0.3479355 1.2842114
-0.44552889 0.34663558 1.2822987
-0.43746611 0.34520611 1.2798173
-0.42970246 0.34397492 1.2779776
-0.42166185 0.34248266 1.2750713
-0.41615573 0.34303516 1.2796924
-0.40984938 0.34293485 1.2818004
-0.40325859 0.34258974 1.282909
-0.39751121 0.34296164 1.2866193
-0.38972169 0.34155545 1.2835697
-0.38301483 0.34106824 1.2838783
-0.37567666 0.33999377 1.2818843
-0.36905998 0.33954743 1.2821685
-0.36293009 0.33954141 1.2840323
-0.35691226 0.33964187 1.2862203
-0.35117739 0.34001988 1.2893844
-0.34315899 0.33816096 1.2839824
-0.33675107 0.33785057 1.2843759
-0.33088201 0.33807921 1.2867457
-0.32350042 0.3367421 1.2830815
-0.31689519 0.33617738 1.2822839
-0.31018516 0.33547729 1.280899
-0.30239192 0.33355454 1.274772
-0.29657856 0.33378199 1.2767947
-0.29071864 0.33396533 1.2785904
-0.28478533 0.33407035 1.2800295
-0.27898112 0.33433461 1.2820239
-0.27370727 0.33526021 1.2865038
-0.26557627 0.3326489 1.277355
-0.25966987 0.33276761 1.2786332
-0.25364181 0.33273244 1.2792723
-0.24774852 0.33287662 1.2805555
-0.24279839 0.33432671 1.2868214
-0.23751786 0.33538404 1.2915384
-0.23106879 0.33480355 1.2899081
-0.22537732 0.33531904 1.2924614
-0.21942675 0.33546686 1.2935612
-0.21298531 0.33485129 1.2916813
-0.20644981 0.33404765 1.28904
-0.20070609 0.33451536 1.2912722
-0.19481103 0.33475193 1.2925819
-0.1880666 0.33349752 1.2881047
-0.18235606 0.33405417 1.2905943
-0.17689584 0.33512303 1.2950383
-0.17039046 0.33421746 1.2918282
-0.16473775 0.33497933 1.2950393
-0.15861256 0.33480191 1.2945979
-0.15279929 0.33529487 1.2967285
-0.14626756 0.33418694 1.2926478
-0.14094853 0.33587363 1.299359
-0.1353301 0.33696622 1.3037566
-0.12930247 0.33709484 1.3044093
-0.12297544 0.33641708 1.3019264
-0.11692698 0.33647057 1.3022597
-0.11121869 0.33756241 1.3065994
-0.10501827 0.33720052 1.3053007
-0.099421285 0.33885077 1.3117805
-0.093440861 0.33932468 1.313697
-0.08735007 0.33943623 1.3142017
-0.08084245 0.33782277 1.3080186
-0.074680008 0.33750623 1.3068494
-0.068763547 0.33834386 1.310142
-0.062832408 0.33926538 1.3137535
-0.056691319 0.33912969 1.3132656
-0.050717592 0.34008351 1.3169912
-0.044737298 0.34124973 1.321535
-0.038505994 0.34056774 1.3189168
-0.032332186 0.3402321 1.3176359
-0.026280072 0.34131971 1.3218631
-0.020030014 0.33971545 1.3156619
-0.013956106 0.34100139 1.3206503
-0.0077882446 0.34020919 1.3175876
-0.0016539453 0.34044418 1.3185002
0.0045030033 0.34175485 1.3235756
0.010701749 0.34289005 1.3279682
0.016807698 0.3413094 1.3218399
0.022871371 0.33994779 1.3165565
0.029127382 0.3414163 1.3222307
0.035321482 0.34177321 1.3235959
0.041386418 0.34096003 1.320426
0.047517281 0.34083003 1.3198977
0.053639717 0.34067634 1.3192729
0.05995832 0.34167203 1.3230941
0.066232704 0.34225374 1.3253059
0.072344758 0.34196889 1.3241568
0.077972099 0.33961758 1.3149993
0.084820874 0.3425414 1.3262597
0.090818219 0.34186324 1.3235656
0.096135326 0.33887345 1.3119135
0.10228735 0.3390083 1.3123494
0.10833983 0.33881658 1.3115106
0.11436092 0.33855242 1.3103803
0.12033293 0.33817706 1.3088076
0.12600972 0.33704829 1.3043064
0.1326749 0.3385455 1.3099527
0.13825834 0.33727214 1.3048635
0.14329709 0.33483326 1.2952505
0.14916575 0.33445254 1.2935832
0.15592717 0.33602527 1.2994518
0.16199861 0.33604899 1.2993097
0.16779575 0.33552253 1.2970191
0.17423414 0.33627033 1.2996317
0.17950879 0.33479744 1.2936386
0.1860992 0.33579442 1.2971637
0.19232002 0.33608282 1.2979236
0.19883482 0.33685154 1.300509
0.20222069 0.33243108 1.2830346
0.21017602 0.33556059 1.2946696
0.21547644 0.33439487 1.2896975
0.22146733 0.33433497 1.2889575
0.22783226 0.33482787 1.2903117
0.23419292 0.33528927 1.2915049
0.24074484 0.33599433 1.2935945
0.24714568 0.33645913 1.2947155
0.25297508 0.33614233 1.2927846
0.25853208 0.33548689 1.2895085
0.26661152 0.33805981 1.298589
0.27155852 0.33663473 1.2922599
0.27603155 0.33469713 1.2839212
0.28093156 0.33334911 1.2778003
0.28925121 0.3360303 1.2870653
0.29631019 0.33716691 1.2903454
0.30264091 0.33744586 1.2902797
0.30969095 0.33849999 1.2931118
0.31686839 0.33964995 1.2962385
0.32332548 0.33999881 1.2962366
0.3287465 0.33926541 1.2920424
0.33548281 0.3398914 1.2929561
0.33996329 0.33825055 1.2851796
0.34711319 0.33927661 1.2874655
0.35435954 0.34035975 1.289883
0.36091539 0.34075412 1.2896054
0.36511287 0.33894593 1.2809216
0.37236124 0.33998293 1.2829145
0.37938365 0.34078327 1.2839233
0.3854475 0.34071088 1.2815574
0.39292189 0.34186795 1.2837268
0.40007868 0.34271726 1.2846446
0.40541083 0.34200144 1.2796118
0.41357002 0.34365618 1.2833593
0.41960338 0.34352174 1.280333
0.4268297 0.34435362 1.2808233
0.4346883 0.34566447 1.2830013
0.44170767 0.34628028 1.2825099
0.44886249 0.34698367 1.2822624
0.45475385 0.34670442 1.2783157
0.46021912 0.34611234 1.2731653
0.46859264 0.34769401 1.275952
0.47563857 0.3482618 1.2749593
0.48242733 0.34862897 1.2731946
0.48976985 0.34938174 1.2728107
0.49649543 0.3496809 1.2707626
0.50317889 0.34994316 1.2685885
0.5074935 0.34857199 1.2605337
0.50400752 0.34194207 1.2335812
nan nan nan
nan nan nan
0.31036603 0.20311131 0.72772592
0.31525639 0.20390517 0.72903198
nan nan nan
nan nan nan
nan nan nan
nan nan nan
nan nan nan
nan nan nan
nan nan nan
nan nan nan
nan nan nan
nan nan nan
nan nan nan
0.27630928 0.15677078 0.55371249
nan nan nan
0.27861539 0.15490907 0.54757673
0.28231764 0.15540923 0.54972982
0.28411162 0.15485941 0.54827392
0.28832656 0.15562703 0.55158496
0.2949518 0.15766829 0.55952024
nan nan nan
0.27830052 0.14595316 0.51950443
0.2804769 0.14571637 0.51956189
0.29718441 0.15296327 0.54642695
-0.71071261 0.34805086 1.2451364
-0.69164151 0.34167552 1.2190161
-0.68139815 0.33958706 1.2083536
-0.67706662 0.34043387 1.2082547
-0.67845947 0.34420002 1.2185981
-0.68325794 0.34977791 1.2354103
-0.67730886 0.34990564 1.2330706
-0.66768461 0.34811953 1.2241523
-0.66279 0.34878901 1.2240396
-0.66279751 0.35207513 1.2332532
-0.65694433 0.35228094 1.2318343
-0.65087712 0.35237479 1.2302111
-0.64652961 0.35341054 1.2320684
-0.63926768 0.35285783 1.2285922
-0.63250673 0.35257348 1.2262694
-0.63097548 0.35522771 1.2343839
-0.62295371 0.35424453 1.2300864
-0.61798424 0.35499465 1.2320492
-0.61079502 0.35447204 1.229841
-0.60542047 0.35500264 1.2315396
-0.60096496 0.35608891 1.2354224
-0.59513074 0.35637265 1.2367812
-0.59064096 0.3574762 1.2412472
-0.58642352 0.35877028 1.2466388
-0.58085102 0.35925457 1.2494769
-0.57503825 0.35959938 1.2520815
-0.56706208 0.35858387 1.2501856
-0.55833489 0.35706502 1.2467489
-0.5515343 0.35675764 1.247744
-0.54518801 0.35674042 1.2499461
-0.53908145 0.35688144 1.2528799
-0.53131121 0.35591131 1.252063
-0.52500015 0.35590717 1.2547724
-0.518278 0.35562086 1.2565988
-0.50863296 0.3532972 1.2512982
-0.50272137 0.35354125 1.2551464
-0.49566427 0.35297573 1.2561698
-0.4877356 0.35176706 1.2549232
-0.4795441 0.35033518 1.2528733
-0.47416788 0.35094947 1.2581341
-0.46835837 0.35125506 1.2622832
-0.46175003 0.35096177 1.2642539
-0.4556427 0.35104641 1.2675471
-0.44908434 0.35078111 1.2695285
-0.44213116 0.35019565 1.2702893
-0.43436679 0.34894195 1.2685497
-0.42654687 0.34760666 1.2664262
-0.42023647 0.34748045 1.2686249
-0.41449311 0.34782639 1.2724743
-0.40814352 0.34766638 1.2743969
-0.40178576 0.34749427 1.2761934
-0.39508694 0.34701738 1.2767854
-0.38792723 0.34611413 1.2757183
-0.37991321 0.34440744 1.2715924
-0.37241864 0.34312356 1.2689279
-0.36679173 0.34354642 1.2724904
-0.36054653 0.34339473 1.2738466
-0.35454631 0.34347501 1.2759852
-0.34774306 0.34276673 1.2751142
-0.34113631 0.34223029 1.2748008
-0.33394769 0.34108019 1.2721196
-0.32643059 0.33954599 1.267922
-0.31974402 0.33883435 1.2667166
-0.3158665 0.34112915 1.2766889
-0.30730265 0.33835366 1.2676177
-0.30079004 0.33777112 1.2666857
-0.29497126 0.33795995 1.2685827
-0.28905475 0.33804229 1.2700212
-0.2829937 0.33795547 1.2707663
-0.27709678 0.33806515 1.2721943
-0.2708416 0.33773294 1.2719042
-0.26479194 0.3376478 1.2724915
-0.25843173 0.33715358 1.2714851
-0.25238696 0.3370572 1.2719296
-0.24674298 0.33750442 1.2743797
-0.24140964 0.33840933 1.2785162
-0.23587646 0.33907294 1.2817014
-0.22934839 0.3383038 1.2794297
-0.22296424 0.33771133 1.2777836
-0.21704191 0.337805 1.2786956
-0.21089533 0.33754504 1.2782327
-0.20548709 0.33848611 1.2822844
-0.19930638 0.33817312 1.2815536
-0.19269614 0.3370893 1.2778689
-0.18688124 0.337372 1.2793335
-0.18029489 0.33623466 1.2753848
-0.17472444 0.33697888 1.2785459
-0.16869479 0.33685884 1.278403
-0.16328675 0.33801675 1.2830874
-0.15667161 0.33666894 1.2782375
-0.15102705 0.33738261 1.2811928
-0.14540087 0.33819786 1.284515
-0.13966443 0.33881572 1.2870696
-0.13412142 0.33997938 1.2916807
-0.12806986 0.3399027 1.2915637
-0.12194187 0.33960566 1.2905936
-0.11568483 0.3388997 1.2880547
-0.10981446 0.33931124 1.2897493
-0.10428084 0.34087119 1.2957973
-0.098721921 0.34253511 1.3022301
-0.09278138 0.34300607 1.3041173
-0.086475573 0.34209821 1.300752
-0.080244176 0.34137002 1.2980599
-0.074389651 0.34225705 1.3015014
-0.068432428 0.34278703 1.3035778
-0.062202901 0.34192345 1.3003469
-0.05635117 0.34317419 1.3051505
-0.050395783 0.34401989 1.3084075
-0.044390865 0.34471369 1.3110812
-0.038148243 0.34348845 1.3064505
-0.032134261 0.34424764 1.3093626
-0.026076119 0.34477851 1.3114017
-0.020001313 0.34534645 1.3135772
-0.013779878 0.34276751 1.3037791
-0.0077263452 0.34359193 1.306922
-0.0016437094 0.34443888 1.3101466
0.0044859382 0.34659964 1.3183646
0.010620019 0.34640792 1.3176304
0.016646247 0.34412703 1.3089458
0.022725821 0.34387612 1.307978
0.028767077 0.343274 1.3056705
0.034905013 0.3438344 1.3077801
0.04117034 0.34529674 1.3133154
0.047306146 0.34543493 1.3138088
0.053382285 0.34515572 1.3127091
0.059551343 0.3454729 1.3138719
0.065842099 0.3463712 1.317238
0.071296856 0.3430934 1.3047155
0.077090248 0.34183204 1.2998549
0.083690055 0.34406981 1.3082914
0.089741848 0.34390369 1.307578
0.095825873 0.34387437 1.3073751
0.10188099 0.34375098 1.3068041
0.10798428 0.34379494 1.3068582
0.11352334 0.3421337 1.3004185
0.11909711 0.34074017 1.2949847
0.12505922 0.3405385 1.2940671
0.13076076 0.33967859 1.2906339
0.13638839 0.3387107 1.2867752
0.14286482 0.33984351 1.29088
0.14848855 0.33893839 1.2872254
0.15387665 0.33758664 1.2818569
0.16067204 0.33930799 1.2881361
0.16774301 0.3414661 1.2960485
0.17236401 0.33866039 1.2850981
0.17794631 0.33786857 1.2817681
0.18401489 0.33802155 1.2819972
0.19101143 0.33981577 1.2884214
0.19516273 0.33659324 1.2757974
0.2020838 0.33819714 1.2814391
0.20831324 0.33858451 1.2824364
0.21532178 0.34018108 1.2879772
0.2201447 0.33833173 1.2804365
0.22601473 0.33814701 1.2791623
0.233353 0.34011179 1.2859776
0.2396984 0.34056699 1.2870401
0.24547786 0.34021547 1.2850116
0.25163114 0.34038648 1.2849131
0.25885066 0.34195802 1.2900516
0.26384866 0.34059009 1.2840525
0.27015573 0.34093532 1.2844647
0.27381021 0.33799115 1.2724402
0.27988064 0.33809134 1.2718312
0.28784835 0.34043124 1.2795851
0.29441637 0.34105369 1.2808172
0.30063197 0.34125108 1.2803905
0.30775008 0.3424449 1.2836362
0.31457797 0.34327593 1.2854512
0.32098114 0.34362072 1.2853748
0.32790697 0.34450182 1.2872319
0.33182693 0.34225044 1.277321
0.33749831 0.34185383 1.274273
0.34470731 0.34300125 1.2769041
0.35249981 0.34467945 1.2814227
0.35789573 0.343997 1.2770838
0.36293292 0.34299833 1.2715025
0.36914673 0.34312636 1.2700236
0.37783 0.34550831 1.2767932
0.38428068 0.34580538 1.2757611
0.38864964 0.34424913 1.2678194
0.39627209 0.34557831 1.2704241
0.40480363 0.3476477 1.2756467
0.41098872 0.34767017 1.2732638
0.41932902 0.34948826 1.2773647
0.42516044 0.34919283 1.2736536
0.4319917 0.34971529 1.2728499
0.44102728 0.35198221 1.2783039
0.4475846 0.35223562 1.2763605
0.45493379 0.35309663 1.2765505
0.45569596 0.34889126 1.2584006
0.46510354 0.35132876 1.2641834
0.47474656 0.35387754 1.2702912
0.48068801 0.35363662 1.2663445
0.48530766 0.352442 1.2589878
0.49329022 0.35368899 1.2603602
0.50079352 0.35456532 1.2604172
0.50701165 0.35452133 1.2572383
0.50316602 0.34752753 1.2295332
nan nan nan
nan nan nan
0.31051865 0.20687595 0.7270658
nan nan nan
nan nan nan
nan nan nan
nan nan nan
nan nan nan
nan nan nan
nan nan nan
nan nan nan
nan nan nan
nan nan nan
nan nan nan
nan nan nan
0.27261478 0.15746407 0.54638869
nan nan nan
0.28551877 0.16161025 0.56135088
0.28117979 0.15757428 0.54777223
0.28053996 0.1556703 0.54168892
nan nan nan
0.30180699 0.16424228 0.57295066
nan nan nan
0.30250069 0.16150586 0.56518579
0.28281376 0.14958024 0.52439666
0.2765798 0.14492524 0.50906456
-0.69127917 0.344531 1.2127268
-0.68428087 0.34402767 1.2076647
-0.67745441 0.34360251 1.2029496
-0.67523193 0.34552577 1.206537
-0.67326182 0.34761387 1.2107786
-0.67067891 0.34942061 1.2141336
-0.67377067 0.35424393 1.228054
-0.66887569 0.35491842 1.2276957
-0.66137278 0.3542088 1.2227056
-0.65317452 0.3531099 1.216548
-0.64162159 0.35015932 1.204208
-0.63958919 0.35239777 1.2098972
-0.63514763 0.35333925 1.2113037
-0.63471341 0.35655034 1.2206678
-0.6279875 0.3562555 1.218223
-0.61664116 0.3533076 1.2069324
-0.61748189 0.35735321 1.2197528
-0.61190158 0.35772732 1.2202604
-0.60577869 0.35778874 1.2199388
-0.60038704 0.35828769 1.2213532
-0.5937627 0.35805386 1.2205184
-0.58962941 0.35933313 1.2250942
-0.58655053 0.36128929 1.2322357
-0.58371955 0.3634423 1.2403101
-0.57628804 0.36274657 1.2389194
-0.57131618 0.36360082 1.2430707
-0.56225961 0.36184552 1.2385371
-0.55586863 0.36178529 1.2400273
-0.54884124 0.36130473 1.2402902
-0.54254431 0.36129948 1.2423834
-0.53576761 0.36097088 1.2435467
-0.52830541 0.36016709 1.2432308
-0.52265221 0.3605921 1.2472999
-0.51431668 0.35915434 1.2450433
-0.50676996 0.35823882 1.244683
-0.50003886 0.35788429 1.2463458
-0.49149022 0.3562035 1.2434373
-0.4845393 0.35565251 1.2444988
-0.47713 0.35474646 1.244333
-0.47152632 0.35517672 1.2488616
-0.46468812 0.35467622 1.2501127
-0.45632631 0.35298356 1.2471262
-0.4510175 0.35363862 1.2523971
-0.44675452 0.35514307 1.2606548
-0.4379518 0.35303041 1.2560196
-0.43059295 0.35203806 1.2552902
-0.42403954 0.35168499 1.2567682
-0.4183906 0.3520827 1.2608629
-0.41235039 0.35215819 1.2637364
-0.40537497 0.35142517 1.2636303
-0.39869124 0.35092637 1.2642813
-0.39311728 0.3514041 1.2683722
-0.38550821 0.35004893 1.2657628
-0.37801322 0.34875566 1.263281
-0.37140584 0.3482523 1.2635701
-0.36356762 0.34655899 1.2594498
-0.35806552 0.34707302 1.2632664
-0.35181892 0.34687066 1.2644002
-0.34624609 0.34733713 1.2678975
-0.33960897 0.34673351 1.2674131
-0.33192462 0.34501946 1.2627853
-0.32469335 0.34372196 1.2595966
-0.31900209 0.34403664 1.262242
-0.31244978 0.34341687 1.2613899
-0.30612504 0.34302801 1.2613156
-0.30021891 0.34310198 1.2628781
-0.29341212 0.34212884 1.2605208
-0.2878713 0.34262216 1.2635046
-0.28126317 0.34183913 1.2617224
-0.27246082 0.33829778 1.2496896
-0.26769847 0.33972701 1.255958
-0.26299942 0.34130296 1.262725
-0.25730518 0.34163046 1.2648274
-0.25117061 0.34137499 1.2647231
-0.2455827 0.34186807 1.2673457
-0.24024627 0.34274447 1.271347
-0.23179914 0.33911461 1.2585843
-0.22726779 0.34117344 1.2668899
-0.22221012 0.34253138 1.2725593
-0.21450163 0.33976549 1.2628672
-0.20903754 0.34049854 1.2661406
-0.20347276 0.34110555 1.268913
-0.19709699 0.34034866 1.266578
-0.19186407 0.3415795 1.2716089
-0.18589284 0.34153256 1.2718546
-0.17980418 0.34125969 1.2712297
-0.17362386 0.3407883 1.2698373
-0.16795228 0.3413173 1.2721467
-0.16181034 0.34089425 1.2708831
-0.15595786 0.34107208 1.271836
-0.15020362 0.34148726 1.2736529
-0.14461751 0.34233472 1.2770621
-0.13913514 0.34351104 1.28168
-0.13342132 0.34419599 1.2844472
-0.12739643 0.34410509 1.2843021
-0.12096716 0.34285912 1.2798289
-0.11492929 0.34265077 1.279213
-0.10913369 0.34318134 1.2813417
-0.10340275 0.34398854 1.2844903
-0.098246977 0.34692603 1.2955825
-0.092202023 0.34690267 1.2956069
-0.085779466 0.34535587 1.2899302
-0.079880983 0.34584489 1.2918465
-0.073800944 0.3455635 1.2908762
-0.067738399 0.34532139 1.2900436
-0.062173173 0.34781423 1.2994202
-0.055551291 0.34429601 1.2863321
-0.049977396 0.34720758 1.2972591
-0.0439924 0.34767121 1.2990338
-0.037900157 0.34729999 1.297683
-0.031875253 0.34752208 1.2985429
-0.025909794 0.3486481 1.3027748
-0.019822262 0.34831795 1.3015602
-0.013721484 0.34736133 1.2979995
-0.0076616555 0.34675094 1.2957273
-0.0016295871 0.34752887 1.2986381
0.0044482904 0.34977937 1.3070464
0.010407189 0.34547937 1.2909724
0.016434144 0.3457607 1.2920126
0.022615597 0.34827048 1.3013748
0.028698441 0.34852153 1.3022914
0.034549858 0.34636495 1.2942059
0.040828552 0.34849632 1.302137
0.04682076 0.34794718 1.3000462
0.053060461 0.34915239 1.3045038
