# .PCD v0.7 - Point Cloud Data file format
VERSION 0.7
FIELDS x y z
SIZE 4 4 4
TYPE F F F
COUNT 1 1 1
WIDTH 1492
HEIGHT 1
VIEWPOINT 0 0 0 1 0 0 0
POINTS 1492
DATA ascii
0.78177154 0.16222373 1.6836015
nan nan nan
nan nan nan
0.28214544 0.056731604 0.58364433
0.29235202 0.058182374 0.59689963
0.29149267 0.057423778 0.58753544
0.28688878 0.055950116 0.57099611
0.28100714 0.05425901 0.55241203
0.27900919 0.053343661 0.54189289
0.28173178 0.053339865 0.54076982
0.27973953 0.052452095 0.53082663
0.27879393 0.051775657 0.52318108
0.28015056 0.051535528 0.52009505
0.28556377 0.052039128 0.52465379
0.3017568 0.054479595 0.5488621
-0.91755652 0.16278286 1.5650966
-0.92353404 0.16527717 1.5870657
-0.91854495 0.16583557 1.59077
-0.90758985 0.16531724 1.5845243
-0.89151943 0.16384943 1.5695848
-0.86781645 0.16093953 1.5412532
-0.84946668 0.15897824 1.5224257
-0.83644617 0.1579873 1.5133044
-0.82083637 0.15648426 1.4996862
-0.79434258 0.15285847 1.4661049
-0.76939136 0.14946346 1.4350773
-0.75901669 0.14886215 1.4312155
-0.72393602 0.14335684 1.3804826
-0.71721405 0.14341448 1.3835727
-0.71222132 0.14382245 1.3903656
-0.70615464 0.1440195 1.3954186
-0.70097613 0.14440349 1.4025519
-0.69519353 0.14466962 1.4087775
-0.68989104 0.14504212 1.4162416
-0.68398279 0.14529371 1.4226909
-0.67764169 0.14545764 1.428407
-0.67013061 0.1453713 1.4317464
-0.66384488 0.14555173 1.4377619
-0.65837646 0.14591721 1.4456372
-0.65327376 0.14637265 1.4544165
-0.64510822 0.14614432 1.4563731
-0.64043528 0.14671096 1.4662055
-0.63308191 0.14666943 1.4699005
-0.62596411 0.14668219 1.4740498
-0.61939347 0.14682491 1.4794075
-0.61418378 0.1472974 1.4879926
-0.60709959 0.14732619 1.4919895
-0.60015553 0.14739008 1.4962177
-0.59500581 0.14790156 1.5048733
-0.58860397 0.14811057 1.5103339
-0.58252841 0.14840789 1.516571
-0.57684523 0.14881395 1.523797
-0.57077056 0.14912811 1.5299596
-0.5665642 0.14994484 1.5411625
-0.5604077 0.15026009 1.5470964
-0.55380213 0.15046173 1.5517343
-0.54771304 0.15081103 1.557771
-0.5413751 0.15110038 1.5630673
-0.53494263 0.151371 1.5680499
-0.52862722 0.15168279 1.5733413
-0.52340937 0.1523229 1.5819268
-0.51705575 0.15264615 1.5871133
-0.50977129 0.15270007 1.589386
-0.503654 0.15311037 1.5952587
-0.49917135 0.15403754 1.6064178
-0.49236614 0.15426537 1.6101866
-0.48597187 0.15463108 1.6152931
-0.48056188 0.1553265 1.6237496
-0.47413641 0.15571074 1.6288614
-0.46876457 0.1564592 1.6376939
-0.46293646 0.15707768 1.64508
-0.45830554 0.15813009 1.656929
-0.45069125 0.15817159 1.6581024
-0.43983173 0.15705578 1.6470544
-0.43142465 0.15679152 1.6448498
-0.42667133 0.15786965 1.6566515
-0.42131615 0.15876071 1.6664206
-0.4144479 0.15910438 1.670374
-0.40615818 0.15890503 1.668557
-0.40095335 0.15992838 1.6795129
-0.39290819 0.15983699 1.678699
-0.38415489 0.15944798 1.6746978
-0.37631941 0.1594317 1.6745527
-0.37033525 0.16021563 1.6827573
-0.3630501 0.16045846 1.6852254
-0.35645759 0.16102493 1.6910419
-0.35048893 0.16190514 1.7001048
-0.34121859 0.16126561 1.6931645
-0.33371446 0.16145033 1.6948365
-0.32593676 0.16150843 1.6951404
-0.31919956 0.1620978 1.7009825
-0.30926067 0.16104989 1.6896107
-0.2991783 0.15987055 1.6768347
-0.29682258 0.16286753 1.70783
-0.28905162 0.16297652 1.7085069
-0.28155786 0.16325238 1.7109089
-0.27293688 0.16287173 1.7064099
-0.26492494 0.16284256 1.7055765
-0.25807866 0.16355026 1.7124428
-0.24813886 0.1622801 1.6985888
-0.24124707 0.16298524 1.7054014
-0.23546135 0.16451135 1.720788
-0.22753827 0.16459927 1.7211189
-0.22065832 0.16547589 1.7296902
-0.20994784 0.16343737 1.7077923
-0.20215973 0.16360244 1.7089282
-0.19500449 0.16431442 1.7157762
-0.18743221 0.16472106 1.7194376
-0.17952318 0.164855 1.7202576
-0.17189564 0.16527216 1.7240403
-0.16466793 0.16613391 1.7324681
-0.15685543 0.16646448 1.7353659
-0.14845279 0.16617063 1.7317698
-0.13997602 0.16575499 1.7269239
-0.13287692 0.1670199 1.739603
-0.1243425 0.16652821 1.7340046
-0.11547462 0.16548973 1.7227392
-0.10755541 0.16575676 1.72509
-0.099734291 0.16623081 1.7296183
-0.091722764 0.16644345 1.7314517
-0.083515778 0.16630828 1.7296944
-0.075417921 0.16638471 1.730167
-0.067406587 0.16669358 1.733086
-0.05908284 0.1662086 1.7277826
-0.051110044 0.1667136 1.7328025
-0.043005131 0.16689759 1.7345173
-0.034833159 0.16684657 1.7338227
-0.026586777 0.16629885 1.728001
-0.018416198 0.16595159 1.724297
-0.010309672 0.16608901 1.7256639
-0.0021880218 0.16609859 1.7257365
0.0059329448 0.16606279 1.7253726
0.013987658 0.16528547 1.7173389
0.02200163 0.16477239 1.7120845
0.030020369 0.1645605 1.709993
0.038082715 0.1646267 1.710825
0.046129815 0.16461541 1.7108849
0.05418491 0.16463174 1.7112645
0.062286869 0.1647678 1.7129208
0.070409983 0.16492227 1.7148
0.078437433 0.16484393 1.7142887
0.086406052 0.16466808 1.7127924
0.093932338 0.16375111 1.7036127
0.10136561 0.16282877 1.6944003
0.10899306 0.16232999 1.689617
0.11711977 0.16259202 1.6927763
0.12512238 0.16265938 1.6939323
0.1333214 0.16295883 1.6975271
0.1410967 0.16273575 1.6956983
0.14891139 0.16257948 1.6945828
0.15646808 0.16217168 1.6908594
0.16475084 0.16251944 1.6950281
0.17218275 0.1620345 1.6905233
0.18021812 0.16213514 1.6921369
0.18948701 0.16329028 1.7047689
0.19737697 0.16321175 1.7045314
0.20389402 0.16204821 1.6929619
0.21172953 0.16198038 1.6928372
0.22049876 0.16260597 1.6999613
0.22829336 0.16249435 1.6993777
0.23628725 0.16252726 1.7003005
0.24388897 0.1622971 1.698463
0.24977562 0.1609761 1.6851952
0.25911978 0.16189604 1.6953734
0.26693594 0.16183506 1.6952684
0.27408251 0.16138335 1.6910514
0.28343222 0.16221783 1.7002939
0.29236969 0.16277738 1.706637
0.30105609 0.16317114 1.71122
0.30952263 0.16342853 1.7143472
0.31610286 0.16270204 1.7071228
0.3239437 0.16264415 1.7068793
0.33283642 0.16310449 1.7120396
0.33994329 0.16268863 1.707965
0.34906125 0.16323221 1.7139227
0.3587296 0.16400315 1.7222255
0.36432829 0.1629205 1.7110169
0.37370446 0.16353723 1.7176056
0.38267568 0.16395465 1.7220492
0.3916803 0.16436891 1.7264045
0.40132314 0.16502899 1.7332829
0.40888202 0.16482297 1.7310033
0.41380575 0.1635832 1.7178037
0.41943067 0.16266242 1.7078893
0.4276517 0.16276397 1.7086403
0.43446371 0.16233532 1.7037536
0.44845754 0.16455738 1.7266049
0.45784226 0.16503961 1.7311131
0.46265912 0.16388711 1.7183933
0.4702951 0.16375545 1.7162961
0.47828639 0.16374983 1.7154306
0.4891234 0.16470267 1.7245076
0.49499059 0.16397822 1.7159246
0.50025702 0.16308104 1.7054445
0.51106906 0.1639915 1.7137645
0.52796334 0.16679534 1.7417347
0.53531694 0.1665456 1.7376857
0.54057086 0.16565989 1.7268957
0.54707652 0.16517825 1.7202123
0.55694723 0.16571188 1.7239789
0.56629699 0.16607744 1.7258608
0.57529831 0.16633189 1.7264513
0.58482385 0.16672869 1.7283781
0.59754533 0.16801322 1.7393463
0.60228992 0.16705044 1.726905
0.6091873 0.16670251 1.7206955
0.61461186 0.16596606 1.7103477
0.62417978 0.16635308 1.7114348
0.63571495 0.1672477 1.717571
0.64671326 0.16798015 1.7218586
0.65420961 0.16779602 1.7165854
0.66477573 0.16839406 1.7191503
0.67265588 0.16830538 1.7145389
0.68159443 0.16848049 1.7124596
0.69339865 0.16935131 1.7172757
0.70241421 0.16952853 1.7148857
0.70670241 0.16857395 1.7009255
0.7157222 0.16875707 1.6983314
0.73004448 0.17017196 1.7079672
0.74019033 0.17059244 1.7074605
0.75234878 0.17146221 1.7113189
0.75985557 0.17126438 1.7044253
0.76763171 0.17113091 1.6981272
0.77410787 0.17071363 1.6889999
0.78937465 0.17222317 1.6989051
nan nan nan
nan nan nan
0.28690112 0.060653824 0.59313607
0.28449816 0.059530381 0.58054042
0.28635088 0.059311166 0.5768671
0.28139168 0.057699569 0.55977941
0.28661466 0.058187105 0.56318015
0.28191632 0.056670681 0.54731488
0.28249514 0.056234255 0.54203832
0.28008556 0.055217106 0.53131688
0.27719331 0.05412513 0.52004129
0.27295366 0.052793205 0.50662822
0.2818009 0.053993717 0.51765978
0.28557253 0.054208465 0.51937121
-0.94196814 0.17528558 1.6071435
-0.91998947 0.17269389 1.5813154
-0.90832007 0.17200866 1.5733376
-0.89383507 0.17077334 1.5607156
-0.8831569 0.17024963 1.554994
-0.86584896 0.16842678 1.5378143
-0.85134751 0.16712153 1.5257734
-0.84232134 0.16687685 1.5238291
-0.82461399 0.16489173 1.5064024
-0.80357081 0.16219594 1.4828725
-0.77802873 0.15853222 1.4508479
-0.7573657 0.15580192 1.4276897
-0.73810089 0.15330917 1.4070112
-0.71981138 0.15097222 1.3880359
-0.71389258 0.15120937 1.3930118
-0.70791656 0.15143898 1.3982192
-0.70177984 0.15163851 1.4034202
-0.69562232 0.15183757 1.4088538
-0.68993497 0.15214442 1.4154924
-0.68439192 0.15248974 1.4226625
-0.67805105 0.15266274 1.4283587
-0.67160404 0.15281521 1.4339577
-0.66483104 0.15289602 1.438943
-0.65872741 0.15313415 1.4454403
-0.65301889 0.1534704 1.4528736
-0.64812088 0.15400666 1.4621947
-0.64118409 0.15406507 1.4669439
-0.6342169 0.15411741 1.4715675
-0.62693501 0.15409359 1.4753792
-0.62078261 0.15435007 1.4817818
-0.61453891 0.15458959 1.4879253
-0.60831666 0.15484026 1.4940703
-0.60274971 0.15526575 1.501794
-0.59629655 0.15547051 1.5072677
-0.58923775 0.15552045 1.5111141
-0.58340418 0.15589909 1.518028
-0.57834244 0.15649614 1.5269516
-0.57066411 0.15639131 1.5289006
-0.56640053 0.15723173 1.5399668
-0.5610683 0.15779366 1.5481944
-0.55457205 0.15803875 1.5531923
-0.54765487 0.15816891 1.5569333
-0.5416531 0.1585706 1.5632243
-0.5351094 0.15882257 1.5679202
-0.5286265 0.15909991 1.5727475
-0.52264374 0.15953778 1.5790474
-0.5163185 0.15988228 1.5843117
-0.51013631 0.16028179 1.5900118
-0.50402921 0.16071716 1.5959613
-0.497338 0.16097657 1.6000586
-0.49165788 0.16157623 1.6074368
-0.48802969 0.16287938 1.6217234
-0.48107582 0.1630962 1.6251031
-0.47421452 0.16335194 1.6287732
-0.47029024 0.16464418 1.6426914
-0.46375147 0.16504885 1.6476699
-0.45575804 0.16494073 1.6474394
-0.447496 0.16472998 1.6460938
-0.43922198 0.16450743 1.644544
-0.43065298 0.16416453 1.6417074
-0.4229432 0.16414262 1.642001
-0.42009437 0.16604124 1.6614364
-0.41394091 0.16668044 1.6682038
-0.40538883 0.16635981 1.6652949
-0.39811844 0.16656286 1.6675611
-0.39113918 0.16689824 1.6710886
-0.38228905 0.16643272 1.6665356
-0.37477461 0.16654146 1.6676744
-0.36919856 0.16753443 1.6776121
-0.36178005 0.16771615 1.6793735
-0.35414526 0.16780342 1.6801391
-0.34477732 0.16705489 1.672489
-0.34023133 0.16866212 1.6883788
-0.3313773 0.16815926 1.6831026
-0.32382375 0.16830797 1.6843091
-0.31494632 0.16775888 1.6784972
-0.30694997 0.1676631 1.6771878
-0.29997188 0.16813304 1.6815062
-0.29385638 0.16912463 1.6910094
-0.28809312 0.17037924 1.7031106
-0.27864084 0.16946141 1.6934719
-0.27034476 0.16921371 1.6905122
-0.26217496 0.16903256 1.6882001
-0.25367382 0.16861993 1.6835617
-0.24549046 0.1683989 1.6808252
-0.23775242 0.16847883 1.6810818
-0.23228647 0.1702293 1.6979923
-0.22730511 0.17247127 1.7197859
-0.21804909 0.17151532 1.7096832
-0.20889418 0.17056912 1.6996822
-0.20131071 0.17088196 1.7022299
-0.19436172 0.17178132 1.7106181
-0.18758833 0.17291987 1.7213868
-0.17968558 0.17307284 1.7223467
-0.17153728 0.1729926 1.720994
-0.16373435 0.17326991 1.7232088
-0.15653189 0.17424445 1.7323668
-0.14840782 0.17424358 1.7318388
-0.14004295 0.17394356 1.7283553
-0.13185042 0.17383383 1.7267816
-0.12352452 0.17352241 1.7232252
-0.11492404 0.17275459 1.7151614
-0.106505 0.17216431 1.708886
-0.098750718 0.17264 1.7132158
-0.090817831 0.17286013 1.7150339
-0.082968384 0.17329742 1.7190319
-0.07499592 0.17354441 1.721169
-0.066722929 0.17307159 1.7161963
-0.058843426 0.17362978 1.7214775
-0.050861903 0.17401695 1.7250924
-0.042886693 0.1745768 1.73045
-0.034682225 0.17424707 1.7270218
-0.026471592 0.17367522 1.7212274
-0.018376695 0.17369325 1.7213129
-0.010276024 0.17364222 1.7207474
-0.0021782643 0.17344393 1.7187564
0.0058860364 0.17280611 1.7124439
0.01397275 0.17318319 1.7162219
0.021991255 0.17274827 1.7119867
0.029975301 0.17234839 1.7081316
0.037976511 0.1721954 1.7067558
0.046053804 0.17238061 1.7087644
0.054116089 0.17246293 1.7097851
0.062185746 0.1725444 1.7108289
0.070305951 0.1727314 1.7129498
0.078405343 0.17283408 1.7142643
0.086330384 0.17256911 1.7119604
0.094043948 0.17196265 1.7062945
0.10151201 0.17103781 1.6974924
0.1090004 0.1702794 1.6903629
0.11712263 0.17054695 1.6934406
0.1254967 0.17112388 1.6996139
0.13290243 0.17039037 1.6927922
0.14098735 0.17056125 1.6949724
0.14960887 0.17132838 1.7030979
0.15771961 0.17146248 1.7049488
0.1647017 0.17041582 1.6950698
0.17167512 0.16945693 1.6860691
0.17908537 0.16899464 1.6820146
0.18833417 0.17023315 1.6948988
0.19675857 0.17065647 1.6996776
0.2037333 0.16983838 1.6920952
0.21131419 0.16956791 1.6899666
0.21973877 0.16996957 1.6945363
0.22826582 0.17041977 1.6995893
0.2360397 0.17029628 1.6989176
0.24251683 0.16927572 1.6892852
0.2496254 0.16874632 1.6845392
0.2577537 0.16891752 1.6867737
0.265708 0.16896796 1.6877884
0.27285352 0.16851598 1.6837665
0.28083396 0.1685905 1.6849844
0.28932658 0.16896011 1.6891307
0.29710937 0.16890655 1.6890228
0.30639592 0.1696886 1.6972451
0.31517071 0.17015493 1.7022828
0.32331538 0.17026657 1.7037406
0.3311235 0.17019987 1.7033783
0.33755547 0.1694455 1.6960942
0.34403318 0.16874805 1.6893374
0.35263345 0.16909961 1.6930386
0.36177078 0.16968775 1.6990623
0.37059349 0.17010628 1.7033399
0.3807942 0.17112653 1.7135912
0.38991037 0.17162751 1.7185873
0.39654684 0.17103882 1.7126142
0.40941191 0.17310688 1.7331799
0.41143698 0.17060027 1.7078797
0.41664541 0.16948363 1.6964326
0.42266437 0.16873215 1.6885736
0.43136713 0.16905995 1.6914438
0.4372164 0.16827771 1.6831337
0.44899753 0.16976589 1.6974514
0.46031788 0.17103131 1.7094496
0.46442422 0.1696189 1.6945978
0.47403789 0.17023155 1.6998918
0.47978002 0.1694566 1.6912382
0.48367593 0.16806522 1.6763495
0.49214071 0.16828048 1.677395
0.50105047 0.16863874 1.6797602
0.5144732 0.17048141 1.6967891
0.52534646 0.17143603 1.704847
0.5394966 0.17341535 1.7229553
0.54554486 0.17277044 1.7148602
0.55140591 0.17208587 1.7062627
0.56146801 0.17271321 1.7105484
0.57057929 0.17303444 1.7116628
0.57866645 0.17304051 1.709523
0.5874871 0.1732627 1.70938
0.5952602 0.17317411 1.7060299
0.60240847 0.17290857 1.7007999
0.61046427 0.17290708 1.6980267
0.61592603 0.17218046 1.6879982
0.62503469 0.17247891 1.687878
0.6363197 0.17336273 1.6933148
0.65049595 0.17500219 1.7059325
0.65915108 0.17513409 1.7036667
0.6651476 0.17456505 1.6944389
0.67762905 0.1756911 1.7015016
0.69127339 0.17708817 1.7109839
0.70011711 0.17723699 1.7082255
0.70138639 0.17548719 1.6870682
0.70988721 0.1755662 1.6834036
0.72591949 0.17748486 1.6972078
0.73767787 0.17832704 1.7005392
0.7420181 0.17737721 1.6866939
0.75008869 0.17733024 1.6813893
0.76117653 0.17798978 1.682718
0.77224231 0.17863002 1.6838058
nan nan nan
0.2573711 0.058276501 0.54610652
nan nan nan
0.27577469 0.061152536 0.5697875
0.27919686 0.0612779 0.56939268
nan nan nan
0.28477654 0.061249096 0.56622469
0.28535146 0.060763475 0.56043637
0.28665316 0.060440645 0.55627704
0.27698439 0.057833493 0.53126764
0.27422249 0.056704838 0.52002913
0.28083369 0.057517447 0.52673197
0.27042767 0.054862347 0.50183499
0.27425244 0.055116992 0.50371647
0.29679948 0.059094623 0.53973681
-0.90712935 0.17667228 1.5481248
-0.90759587 0.17831004 1.5603771
-0.89686561 0.17775753 1.5537945
-0.88535422 0.17703898 1.5461335
-0.87311208 0.17616008 1.5374594
-0.86285985 0.17567036 1.5325783
-0.86113346 0.17692335 1.5433033
-0.84790444 0.17581438 1.5338366
-0.82483679 0.17262568 1.5066326
-0.80372691 0.16979054 1.4829004
-0.78310901 0.16700648 1.4599806
-0.76704699 0.16514991 1.4455183
-0.74314022 0.16155203 1.4161251
-0.72201431 0.1584942 1.3917246
-0.71458614 0.15841256 1.3937331
-0.70815527 0.15855257 1.3979909
-0.70227492 0.15881994 1.4036471
-0.69679272 0.1591837 1.4104035
-0.69040024 0.15934482 1.4155767
-0.68441081 0.1596033 1.4217885
-0.67850715 0.15988742 1.4283706
-0.67179978 0.15998614 1.4333994
-0.66519028 0.16011056 1.4387234
-0.658943 0.16032578 1.4449011
-0.65340143 0.16071934 1.4527028
-0.64821351 0.16120955 1.4613771
-0.64164782 0.16136427 1.4669797
-0.63411516 0.16127655 1.4703146
-0.62769026 0.1614718 1.4761499
-0.62180555 0.16181214 1.483229
-0.61500651 0.16191973 1.4880797
-0.60864908 0.16214754 1.4939272
-0.60305786 0.16258737 1.5016211
-0.59664047 0.16281246 1.507219
-0.59037018 0.16308372 1.5131232
-0.58379298 0.16327591 1.5181694
-0.57825124 0.16376621 1.5258648
-0.57288617 0.16431971 1.5340325
-0.56545496 0.16428719 1.5366027
-0.56132162 0.1652246 1.5481242
-0.55474633 0.16545859 1.5529393
-0.54832131 0.16574426 1.5581146
-0.54165238 0.16596301 1.5625372
-0.53522068 0.16626151 1.5675893
-0.52890724 0.16660564 1.5729537
-0.52268285 0.166988 1.5785642
-0.51625878 0.16731669 1.5835549
-0.51019949 0.16777499 1.5896628
-0.50474042 0.16844721 1.5976944
-0.49838129 0.16883479 1.6029238
-0.4937976 0.16984494 1.6139668
-0.48807406 0.17048837 1.6214322
-0.48094016 0.17065167 1.6242341
-0.47330615 0.17063998 1.6252707
-0.46730116 0.17122474 1.6318952
-0.46294096 0.1724416 1.6444598
-0.45277578 0.1715007 1.636358
-0.44425124 0.17115964 1.6338854
-0.43856105 0.17191777 1.6418222
-0.42872846 0.17105012 1.6341515
-0.42049634 0.17080113 1.632309
-0.41834778 0.17305961 1.6543597
-0.41170779 0.17351006 1.6590612
-0.40315899 0.17315783 1.6560181
-0.39426562 0.17264101 1.6513323
-0.38921887 0.17382151 1.6628184
-0.38127193 0.17372842 1.662061
-0.3718071 0.17292552 1.6544541
-0.36585668 0.17375776 1.662436
-0.35907069 0.17422056 1.6668304
-0.35089654 0.1740154 1.6647843
-0.34362283 0.17425758 1.6669706
-0.33580589 0.17422913 1.6665233
-0.32899243 0.17473228 1.6711189
-0.32135367 0.17481087 1.6716139
-0.31337884 0.17470601 1.6703184
-0.30584037 0.17484526 1.6713229
-0.29854211 0.17513272 1.673712
-0.29302353 0.17650761 1.686461
-0.28544039 0.17668042 1.6876951
-0.27505031 0.17507632 1.6719353
-0.26730689 0.17511244 1.6718224
-0.25930771 0.17497815 1.6700637
-0.25103453 0.1746449 1.6663917
-0.24320123 0.17460617 1.6655167
-0.23696747 0.17575119 1.6759189
-0.23437272 0.17976563 1.7136583
-0.22370695 0.17765453 1.6929921
-0.21521725 0.17718008 1.6879262
-0.20794393 0.17770904 1.6924165
-0.20037887 0.17802069 1.6948348
-0.1938733 0.17933804 1.7068249
-0.186637 0.18006362 1.7131807
-0.17892736 0.18037722 1.7156196
-0.170809 0.1802889 1.7142433
-0.16291051 0.18043537 1.7151099
-0.15538001 0.1810258 1.7202066
-0.14774279 0.18154971 1.724682
-0.13876718 0.18039441 1.7132227
-0.13157004 0.18155116 1.7237389
-0.12286453 0.18064173 1.7146564
-0.11439366 0.17997402 1.7078925
-0.10610146 0.17950797 1.7030668
-0.097965769 0.17925228 1.7002624
-0.090361305 0.18000948 1.7070889
-0.082433656 0.18020767 1.7086384
-0.074384332 0.18015392 1.7078257
-0.066333257 0.18008238 1.7068729
-0.058288198 0.18000978 1.7059394
-0.050717071 0.18161108 1.7208972
-0.042631947 0.1816303 1.7208927
-0.034428213 0.18103485 1.7150964
-0.02637193 0.18108766 1.7154735
-0.018317102 0.1812014 1.7164601
-0.010273476 0.18169242 1.721053
-0.0021656321 0.1804772 1.7095169
0.0058410661 0.1794806 1.7000844
0.01387509 0.17999017 1.7049514
0.021929957 0.18029793 1.7079395
0.029834965 0.17953886 1.7008537
0.037762169 0.17920604 1.6978369
0.045987096 0.18015572 1.707003
0.054057274 0.18030705 1.7086363
0.061900884 0.17976126 1.7036935
0.070013769 0.18003291 1.7065271
0.07793168 0.17979889 1.7045963
0.085987784 0.17989762 1.7058475
0.093720637 0.17936088 1.7010984
0.1016629 0.17927773 1.7006752
0.10964078 0.17926495 1.7009439
0.11712831 0.17850655 1.6941588
0.12468717 0.17794643 1.6892734
0.13266324 0.17801307 1.6903566
0.14008158 0.17736605 1.6846796
0.14830327 0.17775095 1.6888199
0.15675914 0.17836329 1.6951387
0.16441554 0.17805079 1.6926817
0.17096581 0.1766243 1.6796404
0.17816111 0.17596039 1.673854
0.18628229 0.17622834 1.6769379
0.19502744 0.17704105 1.6852146
0.20263743 0.17680019 1.6834669
0.21028936 0.17661254 1.6822257
0.21865816 0.17701879 1.686641
0.22723393 0.1775585 1.6923275
0.23511316 0.17753594 1.6926506
0.24228501 0.17699805 1.6880513
0.24889019 0.17609316 1.6799372
0.25738218 0.17653772 1.6846832
0.26571161 0.17684773 1.6881318
0.27204743 0.17585118 1.6790899
0.27760118 0.17441908 1.6658624
0.28506598 0.17423302 1.6645097
0.29441917 0.17518036 1.6739618
0.30317459 0.17573231 1.6796118
0.31250626 0.1765821 1.6880815
0.32147565 0.17719047 1.694213
0.32995129 0.17750403 1.697492
0.33670095 0.17689614 1.6919204
0.34260064 0.17587973 1.6823986
0.3497391 0.17553048 1.6792138
0.35783932 0.17566863 1.6806455
0.36760217 0.17659961 1.6896137
0.37784162 0.17771578 1.700302
0.38535863 0.17753191 1.6984977
0.39565024 0.17860797 1.7086881
0.39827639 0.1762494 1.6859612
0.40632752 0.17633632 1.6865658
0.41446051 0.17645483 1.6874056
0.42111647 0.17595178 1.6822326
0.42642546 0.17491458 1.6718842
0.43172544 0.17391101 1.6617873
0.44603255 0.17650715 1.6860034
0.45396134 0.17653298 1.6855769
0.46124616 0.17631182 1.6827074
0.46476051 0.17468092 1.666304
0.47847199 0.17687321 1.6862755
0.48564389 0.17661621 1.68279
0.49100024 0.17571764 1.6731007
0.49986976 0.17608486 1.675365
0.50985265 0.17682682 1.6810813
0.51664364 0.17645606 1.6761073
0.52350605 0.17612043 1.671361
0.53213716 0.17638098 1.6721568
0.54439032 0.17781705 1.683961
0.55138338 0.1775184 1.6792023
0.56277311 0.17862372 1.6875877
0.56686002 0.17741261 1.6739595
0.57785773 0.17836796 1.6806424
0.583215 0.17757998 1.6707605
0.59524739 0.17881837 1.6797973
0.60500139 0.17934865 1.6820136
0.61399567 0.17964283 1.6818577
0.62052137 0.17921644 1.674811
0.63175601 0.18014367 1.680256
0.6365549 0.17923546 1.6684324
0.64883906 0.18043129 1.6760389
0.65812206 0.18077354 1.6755365
0.67177665 0.18229377 1.685766
0.68778354 0.1844084 1.7012681
0.69533914 0.18423386 1.6954665
0.70012206 0.18333738 1.6829103
0.70768559 0.1831813 1.6770493
0.71901959 0.18399362 1.6799222
0.73302329 0.18546309 1.6886356
0.73411983 0.18367054 1.6675715
0.7413159 0.18342674 1.6605558
0.75498849 0.18477331 1.6678663
0.76784068 0.18589221 1.6730417
nan nan nan
nan nan nan
nan nan nan
0.27646598 0.064163931 0.57085603
0.29307556 0.067322791 0.5973382
0.28919709 0.065759011 0.5819537
0.2841835 0.063971058 0.56474936
0.29006663 0.064647168 0.56942415
nan nan nan
nan nan nan
0.26656988 0.057692233 0.50535429
0.26245749 0.056259844 0.49213511
0.2697174 0.057269234 0.50041348
0.27668142 0.058197483 0.50810224
0.28459156 0.059305653 0.51748937
-0.89563966 0.18220451 1.5289637
-0.897708 0.1842235 1.5437673
-0.8888725 0.18402073 1.5402687
-0.87950182 0.18370256 1.536163
-0.86843091 0.18302035 1.5293897
-0.86324751 0.18357784 1.5333605
-0.85959321 0.18447363 1.540552
-0.8435092 0.18269387 1.5258075
-0.81677067 0.17855178 1.4917344
-0.80187744 0.17694555 1.4792359
-0.782749 0.17436539 1.4589717
-0.77032101 0.17324261 1.451265
-0.74689668 0.16960113 1.4227836
-0.72327149 0.16584238 1.3935791
-0.71533841 0.16564304 1.3945558
-0.70805418 0.16559148 1.3970752
-0.70236027 0.16591454 1.4030339
-0.69867975 0.16672464 1.4133756
-0.69262755 0.16697961 1.4192418
-0.68606037 0.16711444 1.4242678
-0.67917782 0.16717446 1.4287969
-0.6722278 0.16721901 1.4332969
-0.66519886 0.16724463 1.4377036
-0.65925938 0.16754772 1.4445393
-0.65453589 0.16816984 1.4541562
-0.6493156 0.16867673 1.4627862
-0.64132786 0.16846798 1.4651762
-0.63372308 0.16835625 1.4683406
-0.62901181 0.16901948 1.4781994
-0.62244129 0.16919266 1.4837006
-0.61575466 0.169338 1.4888611
-0.60917962 0.16951783 1.4942198
-0.60266256 0.16971831 1.4996481
-0.59633267 0.16997701 1.505475
-0.59313959 0.17114718 1.5192738
-0.58601272 0.17119731 1.523021
-0.57847923 0.17112842 1.5255738
-0.5727967 0.17161231 1.532926
-0.56744665 0.17220961 1.5411745
-0.56123739 0.17255844 1.5470794
-0.55484009 0.17285793 1.552418
-0.54816151 0.17307669 1.556906
-0.54155427 0.17332421 1.5615287
-0.53518081 0.17365447 1.5667758
-0.52964085 0.17426826 1.5744667
-0.52301997 0.17453878 1.5789435
-0.51681173 0.1749568 1.584641
-0.5118649 0.17582037 1.594269
-0.50582045 0.17632698 1.600559
-0.49961615 0.17679231 1.6063701
-0.49310994 0.17716344 1.6112229
-0.48715934 0.17774881 1.617925
-0.4800308 0.17791612 1.6207241
-0.47231176 0.17786646 1.6214467
-0.46452361 0.17778869 1.6218152
-0.45947698 0.17877501 1.6318017
-0.45013371 0.17809467 1.6264861
-0.44252226 0.17808791 1.6272308
-0.43515107 0.17817937 1.6287892
-0.4266893 0.17781952 1.6261394
-0.42023659 0.17829905 1.6310881
-0.4143703 0.17904969 1.6384451
-0.40948832 0.18026178 1.6499574
-0.39826256 0.17867424 1.6357735
-0.39024994 0.17849438 1.6344076
-0.38261259 0.17848244 1.6345158
-0.37656581 0.17922707 1.6414924
-0.3699351 0.17971882 1.646096
-0.36353761 0.18034713 1.6518955
-0.35616121 0.18050645 1.6533471
-0.34756988 0.18004346 1.649049
-0.33986956 0.18003154 1.6488353
-0.33417359 0.18110532 1.65852
-0.32620168 0.1809673 1.6570647
-0.31793624 0.18065578 1.6539822
-0.31232885 0.18187663 1.6648914
-0.30413815 0.18161704 1.6622133
-0.29639211 0.18161637 1.6618741
-0.28874332 0.18167683 1.6620651
-0.28278324 0.18283248 1.6722467
-0.27392757 0.18212841 1.6653937
-0.26542458 0.18162456 1.6603534
-0.25760606 0.18157296 1.6594297
-0.249255 0.18113108 1.6549237
-0.24179141 0.18132652 1.6562277
-0.23546302 0.18241432 1.6656671
-0.22955658 0.18391451 1.6788553
-0.22170052 0.18390357 1.6782382
-0.2140265 0.18404838 1.6790366
-0.20629035 0.18414877 1.6794263
-0.19878018 0.18446679 1.6817993
-0.19186181 0.18538286 1.6896228
-0.18492368 0.18635774 1.6979802
-0.17694049 0.18631971 1.6971115
-0.16923377 0.18658292 1.6989939
-0.16209944 0.18753429 1.7071489
-0.15454921 0.18807831 1.711603
-0.14634451 0.18784185 1.7089671
-0.13865234 0.18827389 1.7124276
-0.13002545 0.18741184 1.7041358
-0.12246998 0.18808229 1.7097975
-0.11409508 0.18750009 1.7040917
-0.10608054 0.18746695 1.7033985
-0.098029286 0.18735826 1.7020421
-0.089867793 0.18700087 1.6984512
-0.082078695 0.18742424 1.7019763
-0.074077286 0.18740188 1.7014793
-0.065903418 0.18688501 1.6965209
-0.058166597 0.18763581 1.7030981
-0.050420292 0.18859065 1.7115536
-0.042387448 0.18863276 1.7117549
-0.034305222 0.18842329 1.7097039
-0.02627711 0.18847391 1.7100435
-0.018197235 0.18803419 1.7059664
-0.010098475 0.18655284 1.6924706
-0.0021688147 0.18879338 1.7127728
0.0058375555 0.18736267 1.6998006
0.013836221 0.18748096 1.7009128
0.021791553 0.18714048 1.6978942
0.029664217 0.18646291 1.6918484
0.037611529 0.18644181 1.6917893
0.045603037 0.18660896 1.6934686
0.05372712 0.18718831 1.6989197
0.06159969 0.18685485 1.6961155
0.069267519 0.18604787 1.6890399
0.077514246 0.18680181 1.6961629
0.085300624 0.18640926 1.6929032
0.0933754 0.18666014 1.6955118
0.1014551 0.18688066 1.6978703
0.10924033 0.18656616 1.6953911
0.11653453 0.18551271 1.6862155
0.12421329 0.18516642 1.6834853
0.13196023 0.18495712 1.6820179
0.1396194 0.18465532 1.6797258
0.14723068 0.18432581 1.6771959
0.15565181 0.18499221 1.6837424
0.1632001 0.18460694 1.6807305
0.17067942 0.18418276 1.6773717
0.17760389 0.18322347 1.6691451
0.18524651 0.1830547 1.6681234
0.19320087 0.18319516 1.6699239
0.20106265 0.18324035 1.6708595
0.20611055 0.18081363 1.6492486
0.21638437 0.18298107 1.66954
0.22411163 0.18291922 1.6694932
0.23316991 0.18391134 1.6790628
0.23892777 0.18232039 1.6650393
0.24614482 0.18190812 1.6617644
0.25570434 0.18319927 1.6740402
0.26350009 0.18318772 1.6743999
0.26940802 0.18190217 1.6630938
0.27678615 0.18165348 1.6612438
0.28447384 0.18161595 1.6613022
0.29312125 0.18217689 1.6668108
0.30111432 0.18231267 1.6684034
0.30941749 0.18262465 1.6715795
0.31823334 0.18321648 1.6772854
0.32759431 0.18408628 1.6855029
0.33574709 0.18425234 1.6872396
0.34253448 0.1836786 1.6821609
0.3488293 0.18287231 1.6749074
0.35510609 0.18209201 1.6678451
0.36369544 0.18250561 1.6716684
0.37223595 0.18287787 1.6750618
0.38219789 0.18391885 1.6845253
0.38685605 0.18241704 1.6706421
0.39232191 0.18134779 1.6606621
0.40049756 0.18154825 1.6622477
0.40870643 0.1817559 1.6638319
0.42372847 0.18492928 1.6924899
0.42426792 0.18178152 1.6632234
0.42883888 0.18044305 1.6504484
0.44015497 0.18193989 1.6635282
0.45317277 0.1840761 1.6823592
0.4571242 0.1825196 1.6673541
0.46391112 0.1821284 1.6629142
0.47596425 0.1837835 1.6770604
0.48389333 0.18381836 1.6763173
0.49015898 0.1832303 1.6697984
0.49759287 0.18309054 1.6672677
0.50454181 0.18277942 1.663075
0.51790053 0.18476447 1.6796529
0.52412212 0.184182 1.6727662
0.52952105 0.18333188 1.6633458
0.53749794 0.18338613 1.6620184
0.54949808 0.18479173 1.6728016
0.55478919 0.1839333 1.6629579
0.56412798 0.18442211 1.6651696
0.57052404 0.18394862 1.6585605
0.58166486 0.18499707 1.6655304
0.59214085 0.18580879 1.6702055
0.60119957 0.18616027 1.6705847
0.6092335 0.18618937 1.6679213
0.62575251 0.18877755 1.6879935
0.62319648 0.18561848 1.6565387
0.63420129 0.18652707 1.6612762
0.64341283 0.18689226 1.6610032
0.65467906 0.18783802 1.6657181
0.66521871 0.18855497 1.668225
0.67775524 0.18981409 1.6753452
0.68769068 0.19032358 1.6756728
0.69391233 0.18980539 1.6668216
0.70262945 0.18997385 1.6638858
0.7170977 0.19167566 1.6742256
0.71520919 0.18901637 1.6463985
0.72581863 0.18968251 1.647506
0.73554647 0.19010611 1.646421
0.75252593 0.19237429 1.6612078
0.77071112 0.19489843 1.6780753
nan nan nan
nan nan nan
0.2970379 0.072761372 0.62105989
0.30065006 0.072884835 0.62038755
0.28999165 0.069581643 0.59068674
nan nan nan
nan nan nan
0.28273013 0.065818876 0.55475014
0.28066128 0.064694993 0.54417694
0.27877244 0.063634083 0.53429133
0.26507467 0.05992404 0.50235689
0.26261455 0.058801029 0.49229968
0.26786697 0.059409823 0.49687928
0.27799624 0.061078697 0.51044399
0.28274581 0.061545581 0.51409048
-0.88992578 0.18876253 1.5196859
-0.88700593 0.18978968 1.5257787
-0.88079238 0.19012402 1.5266153
-0.87265134 0.19004454 1.5244727
-0.86673522 0.19045252 1.526601
-0.86207289 0.1911459 1.5313896
-0.85513461 0.19134274 1.5325903
-0.83420151 0.1883828 1.5089099
-0.81946528 0.18678017 1.4965039
-0.80179477 0.18447222 1.4788408
-0.78803539 0.18302886 1.4684913
-0.76477295 0.17932948 1.4403943
-0.74648935 0.1767372 1.4215069
-0.72511137 0.17335448 1.3965483
-0.71641189 0.17296594 1.395993
-0.70948404 0.17300165 1.3991644
-0.70416093 0.17343333 1.4058263
-0.7008217 0.1743674 1.4168355
-0.69504964 0.17470916 1.4232732
-0.68828285 0.17480536 1.4279004
-0.68077582 0.1747136 1.4311368
-0.67309934 0.17457598 1.4341012
-0.66680413 0.17479749 1.4400924
-0.65984249 0.17484717 1.4447179
-0.65524411 0.17553107 1.454615
-0.64860368 0.175677 1.4600617
-0.64186126 0.17579827 1.4652739
-0.63663572 0.17634246 1.4739705
-0.6298092 0.17645057 1.4789641
-0.6232087 0.17662525 1.4844333
-0.61710191 0.17694558 1.4910377
-0.61072522 0.17719521 1.4969484
-0.60362905 0.17723958 1.5010127
-0.59761333 0.17760614 1.5076901
-0.59349954 0.17855391 1.5191985
-0.58622539 0.17856266 1.5226036
-0.57926577 0.17866865 1.5267062
-0.57348412 0.17914531 1.5338509
-0.56773227 0.17964374 1.5410633
-0.56106889 0.17986304 1.5457575
-0.55405855 0.17997546 1.5494044
-0.54793078 0.18038142 1.5554532
-0.54201406 0.18086892 1.5620866
-0.53507519 0.18102412 1.56573
-0.52879488 0.18140958 1.5712451
-0.52392739 0.18229759 1.5810045
-0.51883805 0.18313292 1.5902042
-0.51213539 0.18341495 1.5944926
-0.5055337 0.18374205 1.5990627
-0.49916717 0.18416584 1.604368
-0.49202225 0.18431099 1.6071409
-0.48510298 0.18454647 1.6105977
-0.4792349 0.18519564 1.6175681
-0.4715232 0.18514182 1.6183016
-0.46330971 0.18488592 1.6171695
-0.45620206 0.18507019 1.6197929
-0.44993007 0.18560536 1.6254009
-0.44180483 0.18538132 1.6242734
-0.43368226 0.18515061 1.6230012
-0.42596728 0.18508875 1.6231266
-0.41843522 0.18510559 1.6238638
-0.41281113 0.18598266 1.6320742
-0.40474528 0.18577193 1.630669
-0.39614815 0.1853046 1.6269398
-0.38792381 0.18499683 1.6245439
-0.38014731 0.18489464 1.6238893
-0.37402412 0.18560876 1.6303446
-0.36919934 0.18701011 1.6427801
-0.3625266 0.18751496 1.6472859
-0.35342014 0.18675555 1.640633
-0.34451485 0.18607126 1.6345901
-0.33695585 0.18609962 1.634761
-0.33153373 0.18733676 1.645505
-0.32400206 0.18741219 1.6460027
-0.31623986 0.1873547 1.6452937
-0.30849895 0.18730727 1.6446365
-0.30174538 0.1878722 1.6493213
-0.29350993 0.18751988 1.6459218
-0.28576136 0.18746804 1.6451317
-0.27935457 0.18831787 1.6522264
-0.27230293 0.18876889 1.6557957
-0.2646701 0.18883154 1.6559353
-0.25606671 0.18818469 1.6498351
-0.24799299 0.18789908 1.6468874
-0.24101654 0.1884532 1.6512848
-0.23577197 0.19044279 1.6682417
-0.2284922 0.19086829 1.6714815
-0.2208508 0.19101107 1.6722363
-0.21278359 0.19078258 1.6697354
-0.20503668 0.19083484 1.6696889
-0.19731306 0.19091374 1.6698742
-0.19054964 0.19196644 1.6785752
-0.18320458 0.19249849 1.682722
-0.17532571 0.19249228 1.6821672
-0.16818474 0.19333372 1.6890247
-0.16094621 0.19414049 1.6955842
-0.15302867 0.19416945 1.6953591
-0.14355128 0.19211403 1.6769522
-0.13691556 0.1938438 1.691601
-0.12915334 0.19409327 1.6933427
-0.12140442 0.1943967 1.695572
-0.11388635 0.19513822 1.7016389
-0.10594819 0.19521748 1.7019502
-0.097793452 0.19487804 1.6986331
-0.089695029 0.19460055 1.6958803
-0.081699565 0.19451417 1.6948177
-0.073708944 0.19442187 1.6937294
-0.06557934 0.1938964 1.6888945
-0.057495363 0.19337979 1.6841651
-0.049670968 0.19371067 1.6868447
-0.042025071 0.19499542 1.6978579
-0.034081355 0.19517641 1.6992885
-0.025940605 0.19399467 1.6888851
-0.018037023 0.19432667 1.6916908
-0.0100756 0.19406761 1.6893814
-0.002132351 0.19353485 1.68472
0.0057890327 0.19372879 1.6864152
0.013737906 0.19408694 1.6895708
0.021643633 0.19379647 1.6871104
0.029591734 0.19393945 1.6884533
0.037594847 0.19430625 1.6917756
0.045594279 0.19452938 1.6938767
0.053419478 0.19405326 1.6899178
0.06110004 0.19324286 1.683075
0.0688143 0.1927125 1.6786971
0.076689214 0.19269483 1.6788106
0.085091151 0.19388126 1.6894425
0.093053527 0.19394925 1.6903552
0.10088833 0.19376154 1.6890627
0.10861152 0.19340242 1.6862972
0.11565986 0.19197197 1.6742082
0.12362079 0.19214179 1.6760925
0.13154155 0.19223262 1.6773065
0.13917257 0.19191365 1.674961
0.14665124 0.19142987 1.6711904
0.15357345 0.19030561 1.6618372
0.16036782 0.18913896 1.6521205
0.16995619 0.19122338 1.6708132
0.17691478 0.19029567 1.6631987
0.18455379 0.19014721 1.6623981
0.19270818 0.19052029 1.6661612
0.19869702 0.18880659 1.6516744
0.2068321 0.18918425 1.655478
0.21444298 0.18907249 1.6549982
0.22214678 0.18904755 1.6552737
0.22953954 0.18876855 1.6533172
0.23752706 0.18898086 1.6556549
0.24472234 0.18856935 1.6525164
0.25112867 0.18759365 1.6444167
0.25738847 0.1865696 1.6358731
0.2671043 0.18803747 1.6491622
0.275868 0.18877168 1.6560017
0.28425443 0.18921478 1.6602672
0.2920076 0.189224 1.6607008
0.29849675 0.18843487 1.6540987
0.30589297 0.1882436 1.6527133
0.31337678 0.18811433 1.6518384
0.32320967 0.18936756 1.66307
0.33289772 0.19047925 1.6730225
0.34063342 0.19044852 1.6729013
0.34549889 0.18885034 1.6589668
0.35208055 0.1882396 1.6536593
0.35952842 0.18810819 1.6525139
0.36878577 0.18890922 1.6595082
0.37681863 0.18906297 1.6607615
0.38369098 0.18863997 1.6568918
0.39129177 0.18858474 1.6561928
0.397838 0.18803322 1.6510727
0.40496311 0.18777104 1.6484288
0.41143015 0.18721916 1.6431749
0.41559842 0.18566051 1.6290188
0.43423954 0.19050726 1.6709805
0.43932718 0.18934181 1.6601187
0.44650379 0.18910149 1.6572917
0.45470899 0.18929756 1.6582046
0.46211499 0.1891599 1.6561059
0.47057506 0.18945114 1.6576707
0.48297802 0.19129461 1.6727103
0.4892678 0.19069664 1.6662964
0.49537861 0.19004881 1.659353
0.50338686 0.19013765 1.6587403
0.5130555 0.19084142 1.6633778
0.52445835 0.1921595 1.6732411
0.52802742 0.19061077 1.6580278
0.53280139 0.18953572 1.646841
0.54194212 0.19002269 1.6491101
0.55082577 0.19040696 1.6503539
0.55778664 0.19012514 1.6456953
0.5670144 0.19061315 1.6475663
0.57987893 0.19229388 1.659585
0.58990264 0.1930002 1.6630236
0.59582621 0.19236413 1.6547542
0.60309726 0.19217402 1.6501908
0.61222309 0.19257221 1.6505315
0.61915702 0.19227958 1.644805
0.62932694 0.19298662 1.6474764
0.64219761 0.19449408 1.6567956
0.65084243 0.19470049 1.6548556
0.66039711 0.19517083 1.6550025
0.6704762 0.19578302 1.6561909
0.67769301 0.19555487 1.6501286
0.686768 0.19586195 1.6484544
0.69384545 0.19559887 1.6418631
0.70148891 0.19549949 1.6365488
0.71547443 0.19714993 1.6457546
0.72368902 0.1971911 1.6414139
0.73902917 0.19915158 1.6529483
0.74254668 0.19791806 1.6379262
nan nan nan
nan nan nan
0.29792136 0.076893076 0.63082254
0.30308479 0.077408612 0.63325799
0.30220887 0.076386958 0.6231848
nan nan nan
0.28395247 0.070318535 0.57072753
nan nan nan
0.28016648 0.068003409 0.54944575
0.27914673 0.067089856 0.54100025
0.27857611 0.066300973 0.53370947
0.27824685 0.065584213 0.52714956
0.27070731 0.063197851 0.50733787
0.27532148 0.063667133 0.51060587
0.28150597 0.06448736 0.51681846
0.29191425 0.06625095 0.53072178
-0.90677255 0.20020245 1.5489737
-0.87496972 0.19487141 1.5055159
-0.8715381 0.19582079 1.5109497
-0.86735326 0.19661637 1.5155188
-0.86506391 0.19785973 1.5238807
-0.85876 0.19819917 1.5256442
-0.8468107 0.19722995 1.517722
-0.83783764 0.19694236 1.5154448
-0.82404613 0.19550629 1.5047325
-0.80325419 0.19236666 1.4813017
-0.7760728 0.18762267 1.4458791
-0.76583952 0.18692438 1.4419891
-0.75232011 0.18540272 1.4321065
-0.72737294 0.18100744 1.4003227
-0.7176972 0.18036327 1.3978331
-0.71194428 0.18070188 1.4032698
-0.70689464 0.18122756 1.4104601
-0.70103753 0.18155493 1.4163783
-0.6956687 0.1820167 1.4235834
-0.68919623 0.18219635 1.428784
-0.68164408 0.18209134 1.4319065
-0.67469782 0.18214768 1.4364141
-0.66826063 0.18234412 1.4421158
-0.66133016 0.18240878 1.4468317
-0.65392727 0.1823431 1.4505351
-0.64974278 0.18318331 1.4614569
-0.64216089 0.18307383 1.4647889
-0.63790518 0.18392086 1.47574
-0.63121802 0.18407825 1.4811108
-0.62400562 0.18408433 1.4851836
-0.61821729 0.18451557 1.4925989
-0.61167431 0.18472914 1.4981596
-0.60552108 0.18506697 1.5046238
-0.59909576 0.18532886 1.5103595
-0.59288174 0.18566328 1.5165709
-0.58637875 0.18591452 1.521983
-0.58003426 0.18622293 1.5277401
-0.57355756 0.18649624 1.5330849
-0.5675872 0.1869434 1.5397358
-0.5601384 0.18690895 1.5422924
-0.55338162 0.18710756 1.5466404
-0.54934406 0.18824331 1.5586216
-0.54269558 0.18850321 1.5632389
-0.535667 0.18863639 1.566682
-0.52900046 0.18890265 1.5711082
-0.52416867 0.18984093 1.5810139
-0.5177654 0.19022895 1.5862296
-0.50971687 0.19001505 1.5863088
-0.50257981 0.19013958 1.5890975
-0.4984045 0.19140531 1.6013231
-0.49073091 0.19134577 1.6023619
-0.48313081 0.19131349 1.6035213
-0.47741205 0.19203691 1.6109165
-0.46967694 0.19195953 1.6114979
-0.460673 0.19135253 1.6075319
-0.45234305 0.19101003 1.6056885
-0.44650722 0.19172688 1.6126617
-0.44071963 0.19248946 1.6199391
-0.43285763 0.19235682 1.6196008
-0.42489812 0.19217534 1.6187683
-0.41717479 0.19209602 1.6187174
-0.41039345 0.19245557 1.6222899
-0.402715 0.19240002 1.622292
-0.39518544 0.19241484 1.6228178
-0.387086 0.19214731 1.6208954
-0.37912557 0.19193956 1.6194128
-0.37385049 0.19311047 1.6295028
-0.36924332 0.19468203 1.6429179
-0.35890248 0.19323309 1.6307881
-0.34988391 0.19244881 1.6242141
-0.34220925 0.19238541 1.623674
-0.33465269 0.19238703 1.6236361
-0.32707736 0.19237769 1.6234615
-0.32102638 0.19328575 1.6309863
-0.31460515 0.19400941 1.6369153
-0.30716389 0.19412442 1.6376705
-0.29894713 0.19374265 1.6342019
-0.29126471 0.19369632 1.6335311
-0.2834335 0.19354589 1.6319541
-0.27662838 0.19410715 1.6363503
-0.27083308 0.19542889 1.6471305
-0.26337206 0.19559076 1.6481097
-0.25492254 0.19500621 1.6427807
-0.24702254 0.19481879 1.6407819
-0.23967285 0.19506732 1.64244
-0.23475002 0.19737266 1.6613975
-0.22734697 0.197679 1.663512
-0.21902613 0.19718078 1.6588482
-0.21167566 0.19755159 1.6614897
-0.20285794 0.19652921 1.6524119
-0.1963443 0.19774643 1.6621624
-0.18962808 0.19885148 1.670965
-0.1819472 0.1989965 1.6716993
-0.17419611 0.19907428 1.671873
-0.16609316 0.1987384 1.6685791
-0.15852928 0.19904621 1.6706986
-0.15194106 0.20067453 1.6839066
-0.14352383 0.19993325 1.6772412
-0.13612199 0.20060253 1.682422
-0.12870274 0.20132683 1.6880766
-0.12114951 0.20192266 1.6926683
-0.11280161 0.2011847 1.6860975
-0.10490124 0.20119387 1.6858091
-0.097222649 0.20166455 1.6894078
-0.089109808 0.20123813 1.6855136
-0.081183746 0.2011915 1.6848245
-0.073158041 0.2008612 1.6817845
-0.064980589 0.19998401 1.6741925
-0.057191685 0.20022583 1.6759953
-0.049302191 0.20013642 1.6750522
-0.041594535 0.20089133 1.6812027
-0.033667743 0.20069359 1.6794083
-0.025802987 0.20085783 1.6806719
-0.017970795 0.20153193 1.6862303
-0.01005911 0.2016744 1.6873695
-0.0021269333 0.2009386 1.6811905
0.0057588811 0.20060199 1.6783813
0.013645959 0.20067297 1.6790113
0.021544786 0.20080148 1.6801525
0.0294633 0.2009954 1.6818705
0.037551746 0.20202151 1.6905816
0.045512892 0.20212419 1.6915944
0.053202309 0.20116889 1.6837804
0.060917258 0.20054479 1.6787641
0.068563916 0.19986458 1.6733036
0.076394141 0.19980429 1.6730579
0.084907867 0.2013763 1.6865071
0.092542589 0.20077327 1.6817658
0.10018294 0.20027623 1.6779332
0.10775636 0.19972752 1.6736875
0.11540516 0.19938356 1.6711758
0.12294144 0.19890131 1.6675228
0.13089523 0.19911179 1.6696936
0.13867325 0.19904619 1.669566
0.14584039 0.19815762 1.6625473
0.15188418 0.19591016 1.6441333
0.16098641 0.19763419 1.6590583
0.16814619 0.19692461 1.6535665
0.1762232 0.19730446 1.6572285
0.18358746 0.19688791 1.6542064
0.19152617 0.1970962 1.6564372
0.19889401 0.19672364 1.6537877
0.20287004 0.19314969 1.6242145
0.21297731 0.19546042 1.6441209
0.22106151 0.19581826 1.6476022
0.22874744 0.19581112 1.6480066
0.23627461 0.19567294 1.6472983
0.24362488 0.19540162 1.6454573
0.25005358 0.19443026 1.637705
0.25580305 0.19300409 1.6261008
0.26382655 0.19332635 1.629207
0.27252668 0.19411252 1.6362046
0.28228703 0.1955905 1.6490148
0.28871518 0.19474252 1.6421906
0.29548672 0.19416396 1.6376082
0.30334198 0.1943087 1.6390953
0.3114385 0.1945971 1.641762
0.31947991 0.19483805 1.6439936
0.32802328 0.19536668 1.6486152
0.33433565 0.19457278 1.6420356
0.33967656 0.19326164 1.6310471
0.34655905 0.1928658 1.6277366
0.35538661 0.19354618 1.633461
0.36429521 0.19424124 1.6392579
0.37459788 0.19563584 1.6509027
0.38152805 0.19524847 1.647453
0.38909802 0.19519731 1.6467801
0.39685223 0.19523883 1.6468264
0.40350947 0.1947493 1.6423278
0.40917477 0.19380814 1.6339556
0.41710803 0.193956 1.6346948
0.42554834 0.1943301 1.6372648
0.43415424 0.19476528 1.6402694
0.43889853 0.19348305 1.628733
0.44792753 0.19410118 1.6331124
0.45854202 0.19537418 1.6429062
0.46971849 0.19684075 1.6542236
0.47617185 0.19631258 1.6486782
0.486449 0.19735257 1.6562015
0.49474627 0.19756927 1.6567063
0.50037795 0.1967313 1.6482667
0.50527549 0.19563456 1.637566
0.51507783 0.19644128 1.6426891
0.51875108 0.19492115 1.6282474
0.52930111 0.19599167 1.6353322
0.53744942 0.19615489 1.6347146
0.54652983 0.19664887 1.6367224
0.55517101 0.19697323 1.6371825
0.56302148 0.19701202 1.6351341
0.57103616 0.19710642 1.6334122
0.58329517 0.19864368 1.6434901
0.59299886 0.19928169 1.645959
0.60078937 0.19926845 1.6428989
0.6068278 0.19868194 1.6349782
0.61628264 0.19921467 1.6361254
0.62496787 0.19948836 1.634988
0.63624257 0.20057161 1.6403189
0.64653653 0.20132296 1.6427593
0.651977 0.20056312 1.6327295
0.65871942 0.2002171 1.6259542
0.6749379 0.20272553 1.6421862
0.67005801 0.19891223 1.6071143
0.68669093 0.20149948 1.6236694
0.69984221 0.20301773 1.6314206
0.70830655 0.20315745 1.6279718
0.71766174 0.20354672 1.6264433
0.72800344 0.20420416 1.6269871
0.73226929 0.20316154 1.6139736
nan nan nan
nan nan nan
nan nan nan
0.30195567 0.080274455 0.63044214
0.29833087 0.078490891 0.61476237
nan nan nan
nan nan nan
nan nan nan
0.26398265 0.066695862 0.51744503
nan nan nan
0.27460781 0.068029605 0.5259037
0.273958 0.067214355 0.51885694
0.27338853 0.06643419 0.51223123
0.27666867 0.066595398 0.51300627
0.28101349 0.06700746 0.51584935
0.28092659 0.066364929 0.51071376
-0.8674379 0.19904323 1.4823112
-0.86579818 0.20040558 1.4902042
-0.86372346 0.20169038 1.4978037
-0.86299181 0.20331451 1.5082278
-0.85485655 0.2032079 1.5061487
-0.85276765 0.20454969 1.5151627
-0.8404814 0.20344763 1.5064518
-0.8318755 0.2032243 1.5046394
-0.8228429 0.20289163 1.5024166
-0.8091476 0.20139216 1.4919521
-0.78813463 0.1980256 1.4680372
-0.76990992 0.19530173 1.4492445
-0.75672948 0.19381709 1.4399964
-0.73139071 0.18915892 1.4074727
-0.71921247 0.18784602 1.4001138
-0.71387237 0.1883108 1.4063126
-0.70807618 0.18866341 1.4119791
-0.70158684 0.1888366 1.4165752
-0.6954295 0.18910368 1.4221147
-0.6890521 0.1893158 1.4274471
-0.68203557 0.18935494 1.4316417
-0.67570484 0.18958735 1.4374293
-0.66977316 0.1899379 1.4442171
-0.66245669 0.18989909 1.44811
-0.65510619 0.18984956 1.4519484
-0.65302384 0.19134253 1.4676164
-0.64535284 0.19121313 1.4708476
-0.63851464 0.1913303 1.4759299
-0.63212335 0.19158563 1.482022
-0.62622756 0.19199876 1.489269
-0.61878097 0.19194058 1.4927739
-0.61163384 0.191975 1.4968946
-0.60533553 0.19227988 1.5030172
-0.5995869 0.19276886 1.5104748
-0.59317499 0.19305404 1.516224
-0.58697313 0.19341549 1.522455
-0.58117396 0.19392048 1.5296985
-0.57416511 0.19402957 1.5336965
-0.56628525 0.19384331 1.5352243
-0.56071854 0.19445434 1.5429392
-0.55454797 0.19486943 1.5489812
-0.5501563 0.19592924 1.5600358
-0.54433984 0.19650362 1.5671164
-0.53714091 0.19658792 1.5701675
-0.53062183 0.19692694 1.5751314
-0.52208781 0.19651712 1.5739807
-0.51441526 0.19642444 1.5752435
-0.50718194 0.19649921 1.5777309
-0.50252575 0.19758949 1.5882674
-0.49683401 0.19829941 1.5956495
-0.48869848 0.19804071 1.5951318
-0.4803189 0.19767354 1.5936292
-0.47320274 0.19782293 1.5961858
-0.46620455 0.19802724 1.5990883
-0.45854953 0.19795468 1.5996591
-0.45142069 0.19811057 1.6019826
-0.4448038 0.19850023 1.6061087
-0.43799156 0.19881462 1.6095415
-0.43091026 0.19901572 1.6119752
-0.42287129 0.19877374 1.6107383
-0.41547453 0.19883041 1.6118425
-0.40790862 0.19880669 1.6122197
-0.40047678 0.19884868 1.6130579
-0.39361522 0.19918081 1.6161808
-0.38663596 0.19946522 1.6188509
-0.37882254 0.19932199 1.6179875
-0.37091291 0.19912134 1.6165966
-0.36400548 0.19946153 1.6195385
-0.35591277 0.1991529 1.617157
-0.34749728 0.1986464 1.6131163
-0.34056652 0.19898501 1.6158884
-0.33284256 0.19886503 1.6148896
-0.32521969 0.19880125 1.6143029
-0.3185488 0.19933018 1.6184871
-0.31326321 0.20077255 1.6300479
-0.30522224 0.20047684 1.627459
-0.29572859 0.19918756 1.6167725
-0.28889644 0.1996704 1.6204389
-0.28125212 0.19960277 1.6196083
-0.27455941 0.20022538 1.6243508
-0.2690334 0.20175827 1.6364499
-0.26168016 0.20197026 1.6378105
-0.25345299 0.20150027 1.6336211
-0.24582627 0.20149329 1.6331694
-0.23824388 0.20152336 1.6330026
-0.23014845 0.20110713 1.629207
-0.22285818 0.20139001 1.6310649
-0.21701285 0.20304489 1.6440221
-0.20855983 0.2022918 1.6374738
-0.20121981 0.20260206 1.6395293
-0.19433066 0.20340878 1.6455978
-0.18826914 0.20518394 1.6594956
-0.18030244 0.20494612 1.6571106
-0.17195816 0.20423849 1.6509328
-0.16421331 0.20420973 1.6502501
-0.1566871 0.20446341 1.6518564
-0.14908941 0.20464538 1.6528919
-0.1435412 0.20781441 1.6780572
-0.135658 0.20777415 1.6773148
-0.1281669 0.20836641 1.6816916
-0.11833751 0.20498584 1.6540257
-0.11048559 0.20479687 1.6521362
-0.10395659 0.20721643 1.6713052
-0.096338913 0.20768346 1.6747409
-0.088515796 0.20775121 1.6749774
-0.080301389 0.20682432 1.6672179
-0.072203785 0.20603073 1.6605588
-0.064787418 0.20722419 1.6699387
-0.056836169 0.20679979 1.6663051
-0.04905051 0.20693861 1.6672357
-0.041048579 0.20604454 1.6598718
-0.033434402 0.20713384 1.6685131
-0.025652094 0.20752938 1.6715921
-0.01788621 0.20846489 1.6790482
-0.010036261 0.20912267 1.6842953
-0.0021133719 0.20750256 1.671225
0.0057358583 0.2076508 1.6724255
0.013572078 0.20742886 1.670673
0.021421663 0.20749897 1.6713011
0.029325007 0.20791262 1.6747252
0.037188821 0.20793037 1.6749879
0.044901881 0.20724614 1.6696231
0.052914444 0.20794217 1.675405
0.061034493 0.20882592 1.682727
0.06857001 0.20773633 1.6741734
0.076341882 0.20751315 1.6726259
0.084145792 0.20741059 1.6720735
0.091947027 0.20731941 1.6716359
0.099487431 0.20670068 1.6669652
0.10730668 0.20670919 1.6673727
0.11486432 0.20624684 1.6640004
0.12258238 0.20611298 1.6632956
0.13055566 0.20639865 1.665993
