# .PCD v0.7 - Point Cloud Data file format
VERSION 0.7
FIELDS x y z
SIZE 4 4 4
TYPE F F F
COUNT 1 1 1
WIDTH 1524
HEIGHT 1
VIEWPOINT 0 0 0 1 0 0 0
POINTS 1524
DATA ascii
-0.49042028 0.25806114 1.4924741
-0.48200864 0.25735015 1.4905344
-0.47409284 0.25688663 1.4899075
-0.46692663 0.25682145 1.491479
-0.45963931 0.25668663 1.4925388
-0.45230335 0.25652 1.4933089
-0.44555598 0.25668722 1.4959227
-0.4393943 0.25720263 1.5004724
-0.43256021 0.25733489 1.5026957
-0.42472097 0.25686356 1.5013015
-0.41595739 0.25580794 1.4963957
-0.4071835 0.2547096 1.4911442
-0.40082908 0.25511286 1.4945978
-0.39498487 0.25586089 1.4999965
-0.38854086 0.25624046 1.5031626
-0.38117501 0.25601482 1.5027045
-0.37494719 0.25655946 1.5066974
-0.36692426 0.25587308 1.503392
-0.35757688 0.25421834 1.4943244
-0.35123089 0.25467405 1.4975964
-0.34363201 0.25422135 1.4954664
-0.33545661 0.25331455 1.4906049
-0.32972607 0.25425467 1.4965562
-0.32024142 0.25227797 1.485285
-0.31782502 0.25590518 1.5069592
-0.31067461 0.25579843 1.506601
-0.30244234 0.25477538 1.5007998
-0.29337424 0.25298315 1.4904227
-0.28711951 0.25358889 1.4941314
-0.28023079 0.2536509 1.494599
-0.27352655 0.25388727 1.4960583
-0.26731536 0.25460565 1.5003242
-0.26091054 0.25517315 1.50367
-0.25497809 0.25624669 1.5099678
-0.24869975 0.25702363 1.5144904
-0.24213913 0.25754565 1.5174854
-0.23477758 0.25722158 1.5154719
-0.2260893 0.25537881 1.5044901
-0.21999918 0.25644684 1.5106379
-0.21395142 0.25763637 1.5174829
-0.20696284 0.25773555 1.5178896
-0.1998314 0.25765756 1.5172392
-0.19209477 0.25676498 1.5117812
-0.18563415 0.25757489 1.5163375
-0.17911363 0.25836253 1.5207531
-0.17190161 0.25817654 1.5194314
-0.16489346 0.25829387 1.5198897
-0.15825179 0.25902158 1.5239363
-0.15070526 0.2582671 1.5192608
-0.14456496 0.25996685 1.5290216
-0.13848253 0.26195258 1.5404625
-0.13129438 0.26194963 1.5402097
-0.1237009 0.26109082 1.5349295
-0.11646084 0.26091817 1.53369
-0.10949254 0.26137167 1.5361375
-0.10293924 0.26294881 1.5451955
-0.095660068 0.26276976 1.543941
-0.088431478 0.26271185 1.5434089
-0.081115276 0.26236019 1.5411627
-0.073927656 0.26239651 1.5412079
-0.066780344 0.26259908 1.5422424
-0.059575286 0.26259622 1.5420839
-0.052246757 0.26197338 1.5382997
-0.04550219 0.26454702 1.5532987
-0.038294364 0.26489297 1.5552328
-0.030786378 0.26283833 1.5430893
-0.023576291 0.26284811 1.5430824
-0.016386231 0.26318809 1.545031
-0.009180706 0.26361972 1.5475343
-0.0019420524 0.26277316 1.5425513
0.0052758469 0.26320854 1.5451112
0.0125083 0.26344731 1.5465342
0.019779567 0.26402929 1.5499886
0.026858192 0.26241708 1.5405793
0.034104876 0.26278138 1.5427899
0.041490797 0.26390418 1.5494701
0.048687592 0.2636691 1.5481942
0.055693898 0.2625967 1.5420164
0.063158646 0.26368392 1.5485352
0.070284173 0.26327696 1.5462939
0.077390365 0.26288027 1.5441252
0.085097216 0.2644175 1.5533304
0.091626145 0.26234066 1.5413156
0.099270537 0.26352757 1.5484862
0.10676474 0.26418164 1.5525367
0.11387959 0.26387352 1.5509421
0.12083521 0.26325536 1.5475321
0.12800722 0.26315176 1.5471523
0.13426116 0.26127267 1.5363374
0.14010319 0.25882307 1.5221673
0.14759348 0.25950789 1.5264318
0.15532714 0.26053792 1.5327289
0.16208385 0.25991067 1.5292765
0.16770844 0.25759745 1.5158991
0.17467482 0.25744888 1.5152539
0.18102621 0.2564407 1.5095432
0.18787253 0.25618279 1.5082408
0.19445013 0.25559029 1.504959
0.20156001 0.2557143 1.505885
0.20862064 0.25576967 1.5063946
0.21604083 0.25624785 1.5093809
0.22424452 0.2575959 1.517476
0.23105332 0.25730821 1.5159169
0.23771247 0.25687587 1.5134859
0.24539894 0.2575466 1.5175314
0.25124839 0.25630578 1.5102895
0.25636807 0.25440833 1.4991516
0.26270112 0.25378364 1.4954851
0.27106473 0.25510222 1.5032393
0.27807227 0.25511029 1.5032384
0.28771111 0.25747275 1.5170755
0.29366815 0.25650606 1.5112588
0.30033886 0.25619346 1.5092568
0.30603528 0.25508299 1.5025139
0.31215212 0.25436482 1.4980391
0.31866971 0.25399745 1.4955848
0.3286615 0.25635567 1.5091285
0.33544236 0.25616306 1.5076007
0.34156975 0.25548953 1.5031903
0.34812021 0.25515321 1.5007089
0.3544634 0.2546812 1.4973724
0.36092043 0.25430766 1.4945551
0.36721829 0.25383824 1.4911127
0.37586892 0.25498241 1.49708
0.38359776 0.25547084 1.4991223
0.3912369 0.2558831 1.5006423
0.40040275 0.25726169 1.5077472
0.40775591 0.25744808 1.5077803
0.4147194 0.25738633 1.5062779
0.42143193 0.25717342 1.503808
0.42841837 0.2571319 1.5022542
0.4357892 0.25731876 1.5019436
0.44084468 0.2561543 1.4936583
0.44787076 0.25615343 1.4920694
0.45393997 0.25561383 1.4872472
0.46159965 0.25597253 1.4875518
0.47099885 0.25727069 1.4932005
0.47805279 0.2572684 1.4911847
0.486608 0.25806236 1.4936686
0.49479294 0.25863996 1.4947761
0.49997568 0.25765407 1.4867376
0.50921166 0.25875536 1.4906247
0.51801658 0.25961033 1.492956
0.52585483 0.25996426 1.4922739
0.53126192 0.25912285 1.4846148
0.53583002 0.25789988 1.4746726
0.54670292 0.25970381 1.4819108
0.55787116 0.26159978 1.4895108
0.56710708 0.26255304 1.4915898
0.57515764 0.26294041 1.4903214
0.58196568 0.26275724 1.4857063
0.58971876 0.26300001 1.4833944
0.60054189 0.26458955 1.4885553
0.60891539 0.26507467 1.4873857
0.61163104 0.26311448 1.4724412
0.61994284 0.26357931 1.471029
0.63144422 0.26537392 1.4769588
0.64033818 0.2660442 1.4765682
0.6397416 0.26280078 1.4544928
nan nan nan
0.28164774 0.11314829 0.62276024
0.28469729 0.11312658 0.62095118
0.28705737 0.1128343 0.61770868
nan nan nan
nan nan nan
0.28155369 0.10720275 0.58261007
nan nan nan
nan nan nan
nan nan nan
nan nan nan
0.28794491 0.1041942 0.56135809
nan nan nan
nan nan nan
0.28296092 0.099429466 0.53438783
0.27395356 0.095345214 0.51228201
0.27196184 0.093756802 0.50372267
0.27564985 0.09413787 0.50587082
0.281607 0.095279582 0.51223242
-0.78979534 0.25659636 1.3573163
-0.8038429 0.26344579 1.3907467
-0.79484648 0.26279709 1.3847607
-0.78810132 0.2628879 1.3829216
-0.78028166 0.26261869 1.3794489
-0.77153432 0.2620295 1.3745737
-0.76270711 0.26140222 1.3697908
-0.77074432 0.26659656 1.3957916
-0.76133722 0.26579767 1.3907086
-0.75391597 0.26568353 1.3895378
-0.74656135 0.26559097 1.3888161
-0.73999232 0.26577878 1.3899046
-0.73415029 0.26623389 1.3927413
-0.72843498 0.26674426 1.3962225
-0.72102702 0.26663876 1.3968334
-0.71431118 0.26678967 1.3991351
-0.70545137 0.26613477 1.3975453
-0.69787014 0.26595384 1.3987619
-0.69177508 0.26634139 1.4032764
-0.68699187 0.26724729 1.4108193
-0.68026161 0.26740682 1.4146928
-0.67026561 0.26627243 1.4119401
-0.66028363 0.26511928 1.4092591
-0.657709 0.26694763 1.422604
-0.64971423 0.26659206 1.4244674
-0.64363295 0.26702237 1.4306363
-0.63596177 0.26679543 1.4333611
-0.6269297 0.26598588 1.4329869
-0.61908001 0.26566526 1.4352491
-0.61170632 0.26554379 1.4385766
-0.60496235 0.26569608 1.443362
-0.5954591 0.2646257 1.4414479
-0.58732009 0.2641432 1.4426529
-0.58036023 0.2641857 1.446646
-0.57484484 0.26489487 1.454215
-0.56785125 0.26493207 1.4580114
-0.56199926 0.26550958 1.464687
-0.55158108 0.26391697 1.4592708
-0.54239672 0.26288119 1.456789
-0.53589851 0.26313716 1.4613415
-0.52800888 0.26270768 1.4619689
-0.52271605 0.26357603 1.4697058
-0.51526856 0.26336679 1.4713233
-0.50821155 0.26335406 1.4739183
-0.50129277 0.2634137 1.4768018
-0.49327004 0.26288661 1.4762758
-0.48527375 0.26235864 1.475621
-0.47837874 0.26241931 1.478161
-0.47125846 0.26235637 1.4798945
-0.46432063 0.26239461 1.4820914
-0.45706868 0.26225385 1.4831712
-0.45006132 0.2622512 1.4849288
-0.44209471 0.26168066 1.4833673
-0.43539104 0.26185137 1.4859085
-0.42854089 0.26193807 1.4878805
-0.42261466 0.26260179 1.4930426
-0.41624832 0.26300982 1.4966681
-0.40612936 0.26102003 1.4865552
-0.39769402 0.26006171 1.4822212
-0.391132 0.26031613 1.4847165
-0.38317567 0.259635 1.4817978
-0.38015237 0.26233286 1.4980968
-0.36965039 0.25987434 1.4848794
-0.36112669 0.25873911 1.4791434
-0.35583988 0.25992399 1.4866055
-0.34931338 0.26023251 1.4889959
-0.34220019 0.26010758 1.4888467
-0.33424249 0.25932226 1.4848571
-0.32599485 0.25827402 1.479304
-0.31912568 0.25829613 1.4798274
-0.31236285 0.25840724 1.4808104
-0.306768 0.25951141 1.4874383
-0.29992467 0.25958604 1.4881213
-0.2924827 0.25913388 1.4857407
-0.28534347 0.25893441 1.4847679
-0.27898112 0.25944763 1.4878433
-0.27243203 0.25980887 1.4900115
-0.26536775 0.2596848 1.4893627
-0.25937125 0.26062706 1.4947976
-0.25327498 0.26151827 1.4999101
-0.24694155 0.2622081 1.5038402
-0.23886727 0.26103589 1.4970649
-0.23172332 0.26084045 1.4958682
-0.2248655 0.26096487 1.4964846
-0.21728985 0.26023757 1.4921976
-0.21197824 0.2622633 1.5036778
-0.20544277 0.26286167 1.5069573
-0.19831394 0.26271614 1.505958
-0.19169813 0.2632646 1.5089236
-0.18415231 0.26252893 1.5045196
-0.17697302 0.26227823 1.5028868
-0.17080015 0.26355994 1.5100269
-0.16402295 0.26397914 1.512219
-0.15659338 0.26333892 1.5083385
-0.14816053 0.26087201 1.4939951
-0.14372787 0.26555246 1.5205817
-0.13744561 0.26712403 1.5293621
-0.13036598 0.26723307 1.5297703
-0.1229576 0.26664191 1.5261736
-0.11561701 0.26613411 1.5230597
-0.10877249 0.26677635 1.5265332
-0.10207736 0.26790082 1.5327722
-0.095295034 0.26894864 1.538579
-0.087429568 0.26686117 1.5264596
-0.080184191 0.26646391 1.5240203
-0.073238686 0.26708284 1.5274036
-0.06573797 0.26559213 1.5187351
-0.058618218 0.26546615 1.5178839
-0.051908899 0.26742005 1.5289373
-0.044659369 0.26677027 1.5251181
-0.037419036 0.2659393 1.5202777
-0.030573955 0.26818597 1.5330459
-0.02342388 0.2683135 1.533715
-0.016265018 0.26840836 1.5342129
-0.0090791611 0.26785627 1.5310287
-0.0019284298 0.26808855 1.532344
0.0052336329 0.26826581 1.533361
0.01238847 0.26808184 1.5323291
0.019441385 0.26663479 1.5240936
0.026552776 0.26655054 1.5236629
0.033907477 0.26842806 1.5344627
0.041112933 0.26867503 1.5359567
0.048263066 0.26854077 1.5352864
0.055399243 0.26837355 1.5344423
0.062626004 0.26863331 1.5360523
0.070086248 0.2697382 1.5425093
0.077969939 0.27211505 1.5562541
0.083919197 0.26791099 1.5323727
0.09143573 0.26897782 1.5386482
0.098601587 0.26893285 1.5385742
0.10573701 0.26881662 1.5381012
0.11283345 0.26862231 1.5371889
0.1201169 0.26886991 1.5388124
0.12690185 0.2680366 1.5342543
0.13332687 0.26657265 1.5260888
0.13918394 0.26417908 1.512601
0.14580132 0.26338995 1.5082986
0.15309177 0.2638334 1.5110543
0.15870678 0.26147744 1.4977741
0.16589662 0.26180533 1.4998627
0.17336914 0.26253477 1.504248
0.18042728 0.26260442 1.504847
0.18701297 0.26200688 1.5016154
0.19359457 0.26144698 1.4985889
0.19996436 0.26064992 1.4941909
0.20743193 0.26128933 1.4980146
0.21449862 0.26139858 1.4987841
0.22108966 0.26093954 1.4962788
0.22797386 0.26084399 1.4958388
0.23606016 0.26208872 1.5030649
0.24350563 0.2625708 1.505895
0.25070396 0.26276687 1.5070604
0.25642505 0.26144609 1.4994992
0.26149184 0.25954589 1.4885863
0.26607311 0.25727439 1.4755137
0.27704182 0.26113796 1.4975934
0.28239322 0.25964695 1.4889296
0.29140615 0.26151335 1.4994812
0.29725468 0.26051906 1.4935895
0.30409527 0.26041979 1.4927882
0.30984923 0.25941524 1.4867543
0.31551191 0.25837988 1.4805
0.32192621 0.25799111 1.4779035
0.33053315 0.25933903 1.485203
0.33861378 0.2602272 1.4898117
0.34623256 0.26073179 1.4921657
0.35294595 0.26054811 1.4905205
0.35915259 0.26000476 1.4867578
0.36478004 0.25907061 1.4807003
0.37175718 0.25911197 1.4801537
0.38008657 0.26007712 1.4848117
0.38844031 0.26102394 1.4892864
0.39427933 0.26027739 1.4840232
0.40096912 0.26010856 1.4819798
0.41058496 0.26181129 1.4905123
0.41824746 0.26223233 1.4916542
0.42461276 0.2618396 1.4880801
0.42521065 0.25796065 1.4646268
0.43904495 0.26210743 1.4866472
0.4450798 0.26154095 1.4818183
0.45139447 0.26115388 1.4779139
0.45905736 0.26154664 1.4783223
0.46593791 0.26148865 1.4760767
0.47362116 0.2618762 1.4762383
0.48255906 0.26293609 1.4800695
0.49056518 0.26346514 1.4807884
0.49770588 0.26352099 1.4787291
0.50521076 0.26376548 1.4776112
0.51361191 0.26446477 1.4789143
0.52101541 0.26463825 1.4771508
0.52767098 0.26443234 1.4731513
0.53191406 0.26303884 1.4624351
0.54198498 0.26452604 1.4676162
0.55381405 0.2668221 1.477123
0.56162745 0.26714963 1.4755861
0.57046437 0.26794973 1.4765333
0.57884467 0.26851821 1.4760803
0.57915407 0.26537454 1.4551564
0.59492278 0.2693049 1.4729199
0.60386777 0.27008939 1.4733297
0.61111712 0.27010587 1.4694694
0.61774313 0.26984969 1.4640753
0.62791932 0.27113238 1.4669785
0.63461268 0.27089906 1.4616473
nan nan nan
nan nan nan
0.28496906 0.11762342 0.62940449
0.28252155 0.11534192 0.61554408
0.28584152 0.11543889 0.61445981
0.29007813 0.11589999 0.61537182
0.29417825 0.11629743 0.6160143
nan nan nan
nan nan nan
nan nan nan
nan nan nan
nan nan nan
nan nan nan
nan nan nan
nan nan nan
nan nan nan
nan nan nan
0.26768702 0.094814874 0.49582562
0.27431262 0.096251316 0.50348002
0.29022384 0.100889 0.52801466
-0.7979905 0.26618174 1.3723541
-0.79603374 0.26785275 1.3781307
-0.79585105 0.27015543 1.3873423
-0.78176749 0.26773849 1.3725551
-0.77614152 0.26820055 1.3727963
-0.76781124 0.26772815 1.3685182
-0.75661308 0.26623788 1.3593265
-0.7531116 0.26745343 1.3642416
-0.75870514 0.27195168 1.3861811
-0.75076377 0.27163744 1.3838938
-0.74271327 0.2712774 1.3817037
-0.73590696 0.27136922 1.3821527
-0.72977448 0.2717137 1.3842326
-0.72390705 0.27216464 1.3872038
-0.72014594 0.27342418 1.3946512
-0.71051669 0.27245855 1.3910948
-0.7024855 0.27209246 1.3909301
-0.69381768 0.27146989 1.3897724
-0.68994743 0.27273092 1.3985724
-0.68426669 0.27329502 1.4041049
-0.67982489 0.27437097 1.4125509
-0.66753769 0.2722699 1.4048681
-0.66083795 0.27242717 1.4090251
-0.65292895 0.27208388 1.4107695
-0.64656967 0.27238595 1.4160069
-0.64087391 0.27297735 1.4228768
-0.63504279 0.27352372 1.4296137
-0.62577605 0.27258584 1.4286444
-0.61815256 0.27235055 1.4313703
-0.61079091 0.27222645 1.4346802
-0.60298699 0.27190009 1.4369012
-0.595936 0.27190945 1.4408556
-0.58333683 0.26935717 1.4311466
-0.5779199 0.27009958 1.43885
-0.5723244 0.27077574 1.4461415
-0.56409812 0.27020863 1.4467049
-0.55492854 0.26916963 1.4446237
-0.54667079 0.26855204 1.4446796
-0.53918439 0.26830226 1.4465958
-0.5320999 0.26824859 1.4494541
-0.52535355 0.26836619 1.4531249
-0.51828533 0.26832038 1.4557961
-0.51139301 0.26836553 1.4588454
-0.50695825 0.26971948 1.4689068
-0.49974003 0.26960978 1.4708936
-0.49149543 0.26893532 1.4696767
-0.48227042 0.26769719 1.4652495
-0.47221693 0.26595616 1.4579332
-0.46612316 0.26642665 1.4626207
-0.46084344 0.26738375 1.4698844
-0.45410231 0.26750919 1.4724798
-0.44529223 0.26640078 1.4681749
-0.44063342 0.26778013 1.4774829
-0.43278491 0.26723421 1.476077
-0.42469987 0.26652202 1.4736519
-0.4171007 0.26609617 1.4727124
-0.41027766 0.2661595 1.4743903
-0.39999405 0.26394144 1.4633356
-0.39551514 0.26554316 1.4733734
-0.38892779 0.26576105 1.4756614
-0.38129553 0.26525989 1.4738789
-0.37336788 0.26453099 1.470753
-0.36600995 0.26418594 1.4696866
-0.35789424 0.26327026 1.4653739
-0.35341018 0.26504245 1.4759588
-0.34706715 0.26546323 1.4789608
-0.33868864 0.26431268 1.4731463
-0.33227867 0.26468247 1.4757458
-0.324619 0.26405141 1.4727091
-0.31729665 0.26367334 1.4710292
-0.3104963 0.26372197 1.471679
-0.30383661 0.26389498 1.4729753
-0.29611906 0.26313591 1.469023
-0.29000801 0.26380226 1.4729853
-0.284361 0.26493329 1.4795027
-0.2782777 0.26570389 1.4839697
-0.27023464 0.26459485 1.4779027
-0.26292455 0.26416433 1.47559
-0.25733551 0.26548624 1.4830347
-0.25160179 0.26672766 1.4899997
-0.24378489 0.26576838 1.4846435
-0.23699696 0.2659077 1.4853982
-0.22930667 0.2650125 1.48035
-0.22233264 0.26491526 1.4797375
-0.2157656 0.26531222 1.4818654
-0.20712766 0.26310489 1.4694301
-0.20099936 0.26404354 1.4745491
-0.19479704 0.26494789 1.4794616
-0.19080602 0.26903647 1.5021389
-0.18390803 0.26918152 1.5027845
-0.17655542 0.26864633 1.4996235
-0.16960049 0.26869699 1.4997257
-0.16275184 0.26892766 1.5008256
-0.15548785 0.26846194 1.4980354
-0.14903474 0.26941824 1.5031769
-0.14289202 0.27105778 1.5121268
-0.13626063 0.27189237 1.5165842
-0.12908301 0.2716687 1.5151397
-0.12184617 0.27128732 1.5128187
-0.11494087 0.27164257 1.5146092
-0.10810188 0.27221131 1.5175945
-0.10133572 0.27305603 1.5221237
-0.094013982 0.27241817 1.5183957
-0.086947687 0.27247688 1.5185587
-0.079779625 0.27219883 1.5168539
-0.072151206 0.27014291 1.5052537
-0.065033145 0.26976043 1.5029899
-0.058158848 0.27041888 1.5065371
-0.051473368 0.27225715 1.5166682
-0.044459373 0.27266714 1.5188547
-0.037353773 0.27256426 1.5181984
-0.0303434 0.27327085 1.5220636
-0.023265202 0.27361196 1.523908
-0.016124804 0.27319989 1.5215716
-0.0090258149 0.27339283 1.5226198
-0.0019173704 0.27366865 1.5241443
0.0052031572 0.27382532 1.5250204
0.012274868 0.27271634 1.5188626
0.019224742 0.27070409 1.5076884
0.026396336 0.27205575 1.5152642
0.033585474 0.27297851 1.5204663
0.040770419 0.27355117 1.5237323
0.047750447 0.27278301 1.5195435
0.054890931 0.27301162 1.5209205
0.062090635 0.27344868 1.5234716
0.069741607 0.27557907 1.5354697
0.076463357 0.27398285 1.5267158
0.082766615 0.27128699 1.5118428
0.090574913 0.27356032 1.5246717
0.097895078 0.27413559 1.5280472
0.10478325 0.27350515 1.5247098
0.11203435 0.27384201 1.5267713
0.11905162 0.2736012 1.525618
0.12600854 0.27325666 1.5238901
0.13210136 0.27117509 1.5124772
0.13738699 0.26773155 1.4934655
0.1444509 0.26791847 1.4947039
0.15107964 0.26731813 1.4915491
0.15702881 0.26562119 1.4822718
0.16445908 0.26646701 1.4871796
0.17200844 0.26742953 1.492735
0.17924018 0.26784265 1.495218
0.18476918 0.26577562 1.4838461
0.19092536 0.26472723 1.4781497
0.1986538 0.26585603 1.4845978
0.2061595 0.26662076 1.4890009
0.21323028 0.26679161 1.4900719
0.2195335 0.26602158 1.4858713
0.22618248 0.26570472 1.484182
0.23379919 0.26650986 1.488739
0.24128956 0.26712871 1.4922329
0.24925578 0.26822498 1.4983689
0.2558966 0.26787418 1.496394
0.26046625 0.26543126 1.4827034
0.26620549 0.26427567 1.4761734
0.27276662 0.26397359 1.4743782
0.28082496 0.26509973 1.4805247
0.28654119 0.26401392 1.4742805
0.29509085 0.2655285 1.4825168
0.30129895 0.26491499 1.4788287
0.30741563 0.26425037 1.474812
0.31386152 0.26389158 1.4724569
0.3210496 0.26415884 1.4735461
0.32866427 0.26475856 1.476437
0.33697855 0.26588562 1.4822115
0.34494513 0.2666986 1.4861742
0.35142177 0.26635021 1.483605
0.35730436 0.26557374 1.4785925
0.3627311 0.26449439 1.4718338
0.36895952 0.26402888 1.4684287
0.37750822 0.26521042 1.4741122
0.38286045 0.26414427 1.4672301
0.39041772 0.26461017 1.4687849
0.39728412 0.2645998 1.4676173
0.40591449 0.26574466 1.4727712
0.41530856 0.26734275 1.4803407
0.41972423 0.26573628 1.4700798
0.42236009 0.26307327 1.4539076
0.43356243 0.26574594 1.4671315
0.44245556 0.26694146 1.4720833
0.44916382 0.26680231 1.4695706
0.45597547 0.26672781 1.4673148
0.46358049 0.2671127 1.4674819
0.47150934 0.26767004 1.4684831
0.47960517 0.26830462 1.4697909
0.48658079 0.26830328 1.4674999
0.49640077 0.2698482 1.4735401
0.50390959 0.27011117 1.4724493
0.51073068 0.27000341 1.4692204
0.51735586 0.26979634 1.4653375
0.52220291 0.26867995 1.4564133
0.5325588 0.27038997 1.4626871
0.54063207 0.27091163 1.4623915
0.54854333 0.27133971 1.4614658
0.55707854 0.27206165 1.4619979
0.56157619 0.27081832 1.451869
0.56594098 0.26954257 1.4414977
0.57581985 0.27089211 1.4450713
0.58662015 0.27263728 1.4506279
0.59926224 0.27518648 1.4603286
0.60834074 0.27605844 1.4610183
0.61376035 0.27526906 1.4528683
0.62205714 0.27577341 1.4515226
0.62997133 0.27609852 1.4492148
nan nan nan
nan nan nan
0.28636217 0.12135462 0.63176936
nan nan nan
nan nan nan
nan nan nan
0.29402769 0.11934174 0.61513799
nan nan nan
nan nan nan
nan nan nan
nan nan nan
nan nan nan
0.28920823 0.11039354 0.56336457
nan nan nan
0.29729518 0.11127113 0.56699622
nan nan nan
0.2772634 0.10179196 0.51843965
0.2721197 0.098958649 0.5040732
0.27842116 0.10030159 0.51110184
0.30252707 0.1079741 0.55052984
-0.79493833 0.27205995 1.3681015
-0.79184657 0.27337345 1.3718183
-0.78527421 0.27349785 1.3697716
-0.7799713 0.27407062 1.3701947
-0.77364016 0.27428904 1.3690842
-0.76843983 0.27491605 1.3702641
-0.75768214 0.27354816 1.3617758
-0.75116861 0.27370134 1.3611504
-0.74771821 0.27498397 1.3664312
-0.7463547 0.27706537 1.3759784
-0.73974222 0.27721933 1.3762687
-0.7323181 0.27706912 1.3753794
-0.72430885 0.27669251 1.3737036
-0.72067106 0.27799478 1.3807069
-0.71353316 0.27795929 1.3814127
-0.70564085 0.27762625 1.3809808
-0.69752556 0.2771979 1.3804071
-0.69246876 0.27798873 1.386233
-0.68319798 0.27708665 1.3839275
-0.6801849 0.27873015 1.3946365
-0.67169815 0.27814162 1.3944587
-0.66409463 0.2779102 1.3963095
-0.65803814 0.27832818 1.4016438
-0.65122831 0.27843308 1.4055966
-0.6436004 0.27818668 1.4079324
-0.63851148 0.27904445 1.4159917
-0.63073611 0.27873427 1.4182287
-0.62447393 0.27909327 1.423939
-0.61040056 0.27592951 1.4116775
-0.60855049 0.27828199 1.4276409
-0.6015324 0.27829865 1.4316473
-0.58958167 0.27600652 1.4237169
-0.58164394 0.27556053 1.4252262
-0.57418936 0.27533543 1.4278082
-0.56701326 0.27523991 1.4309852
-0.55792361 0.2742016 1.4291623
-0.55212647 0.27477565 1.4356446
-0.54397023 0.27417532 1.4358923
-0.53433961 0.27280673 1.4319879
-0.52955461 0.27390864 1.4409403
-0.52301675 0.27412108 1.4451174
-0.51609945 0.27413771 1.4481514
-0.50911605 0.2741192 1.4508858
-0.500633 0.27328157 1.4491615
-0.49237308 0.27254394 1.4478384
-0.48522642 0.27241027 1.4496028
-0.47703943 0.2716803 1.4480745
-0.47043961 0.27184606 1.4512066
-0.4632214 0.27165413 1.4523207
-0.4581354 0.2727257 1.4600905
-0.45142731 0.27284971 1.4626926
-0.44380301 0.27241516 1.4621966
-0.43644613 0.27213365 1.4624186
-0.42825162 0.27131239 1.4596373
-0.4219808 0.27170295 1.4632797
-0.41489819 0.27157509 1.4640408
-0.40690047 0.27083385 1.4614031
-0.40023226 0.27096725 1.4633968
-0.39300537 0.27072051 1.4632548
-0.38648605 0.27096105 1.4656675
-0.37862468 0.27025235 1.4628669
-0.36998212 0.26894966 1.4567703
-0.36253503 0.26848346 1.4551275
-0.35566536 0.26843512 1.4556798
-0.35004243 0.26934433 1.4613614
-0.34293324 0.26912326 1.46085
-0.33543751 0.26858371 1.4585475
-0.32847244 0.26845551 1.4584194
-0.32217297 0.26887742 1.4612253
-0.31530124 0.26882961 1.4614264
-0.3082583 0.2686305 1.460754
-0.29992989 0.26727691 1.4537538
-0.29322174 0.26733798 1.4544008
-0.28730443 0.26814002 1.4590367
-0.28264186 0.27018031 1.4703717
-0.27506426 0.26946625 1.4666796
-0.26797843 0.26920986 1.4654408
-0.26077497 0.26881877 1.4634342
-0.25438482 0.26926762 1.4659673
-0.24839264 0.27017412 1.470962
-0.24185735 0.2705245 1.4729012
-0.23409674 0.26948476 1.467245
-0.2268011 0.26893389 1.4642266
-0.21993023 0.26886818 1.4638273
-0.21304102 0.26877511 1.4632586
-0.20773402 0.27073798 1.4738637
-0.19924064 0.26854035 1.4618031
-0.19296913 0.26928779 1.4657594
-0.18673506 0.27014422 1.4702952
-0.18300712 0.27482948 1.4956553
-0.17517498 0.27347815 1.4881523
-0.16891749 0.27457505 1.4939631
-0.16129634 0.27345431 1.4877008
-0.15457046 0.27381894 1.4895148
-0.14858416 0.27558953 1.4989723
-0.14192095 0.27621743 1.5022103
-0.13502912 0.27644247 1.5032557
-0.12793328 0.27625158 1.5020401
-0.12104575 0.27651447 1.5032935
-0.11413408 0.27675113 1.5044067
-0.10733036 0.27729762 1.5072078
-0.10047159 0.27776861 1.5096036
-0.093390629 0.27764997 1.5088006
-0.086337894 0.27760276 1.5083934
-0.079395644 0.27793396 1.5100501
-0.071531318 0.27478749 1.492823
-0.064746313 0.27555561 1.4968731
-0.057843715 0.27594852 1.4988955
-0.050907277 0.27626592 1.5005183
-0.044218019 0.27823994 1.5111501
-0.037225951 0.27869612 1.5135499
-0.030138025 0.27848032 1.5123131
-0.023108803 0.27884084 1.5142192
-0.016033914 0.27872527 1.5135531
-0.0089765731 0.27897286 1.5148734
-0.0019016352 0.27848187 1.5121964
0.0051577161 0.27849334 1.512262
0.012161885 0.27723366 1.5054389
0.019138433 0.27649754 1.5014719
0.026137944 0.27639893 1.5009805
0.033434574 0.27881971 1.5141844
0.04036928 0.27790418 1.5092832
0.047473609 0.2782549 1.5112711
0.054506041 0.27814797 1.5107859
0.06149473 0.27786785 1.5093715
0.068264067 0.27675605 1.5034498
0.074792162 0.2749646 1.4938449
0.082233056 0.27654824 1.5025856
0.089276284 0.27665082 1.503289
0.096310407 0.27671233 1.5037769
0.1038169 0.27803048 1.5111018
0.11118215 0.27882686 1.5155977
0.11834182 0.27904329 1.5169469
0.12478073 0.27763164 1.5094484
0.13123089 0.27639446 1.5028988
0.13641347 0.27274817 1.4832481
0.14300078 0.27212688 1.4800446
0.14974746 0.27185211 1.4787235
0.1563056 0.27127424 1.4757503
0.16347729 0.27176505 1.4785868
0.16957927 0.27050984 1.471917
0.17636338 0.27039802 1.4714606
0.18190613 0.26846251 1.4610699
0.18882228 0.26862037 1.4620606
0.19713296 0.2706821 1.4734025
0.20406434 0.27077493 1.4740142
0.21098819 0.27085206 1.4745245
0.2184706 0.27161875 1.4787713
0.22548524 0.27177477 1.4796741
0.23257782 0.27201277 1.4810017
0.2391127 0.27160349 1.4787817
0.24622796 0.27185801 1.4801506
0.25386915 0.27266347 1.4844916
0.25953364 0.27135947 1.4773183
0.26359141 0.26848626 1.4615718
0.27091742 0.26900283 1.464246
0.2775023 0.26877621 1.4628391
0.28433606 0.26879573 1.4627348
0.29174188 0.26934248 1.4654584
0.29812708 0.26894352 1.4629948
0.30392727 0.26804644 1.4577783
0.31242692 0.2695173 1.4653925
0.31999218 0.27013639 1.468323
0.32774681 0.27088606 1.4719095
0.33558044 0.27166891 1.4756186
0.34317631 0.2722317 1.4780726
0.34880042 0.27123898 1.4720223
0.35417011 0.27009061 1.4650711
0.36135134 0.2703411 1.4656454
0.36902446 0.27094337 1.4680578
0.37478483 0.27014494 1.4628115
0.38198295 0.27039298 1.463161
0.38690957 0.26905259 1.4548448
0.39435592 0.26948053 1.4560163
0.40352991 0.27105436 1.46329
0.41164237 0.2718744 1.4663997
0.41669345 0.27067882 1.4585538
0.42322522 0.27046815 1.4559333
0.43111327 0.27111721 1.4578469
0.43859547 0.27149466 1.4581995
0.44576588 0.2716704 1.4573683
0.45378163 0.27234814 1.4591241
0.46003991 0.27196661 1.4551008
0.46905529 0.27320224 1.4596183
0.47492564 0.27259675 1.4541876
0.48205736 0.27272215 1.4525505
0.49080724 0.27374658 1.4555807
0.50409836 0.27724001 1.4715853
0.50987732 0.27656272 1.4653108
0.51308912 0.2745302 1.4517672
0.51845336 0.27368838 1.444435
0.53086472 0.27653977 1.4564586
0.53880686 0.27701905 1.455839
0.54474628 0.27646962 1.4497027
0.54946887 0.2753244 1.4403554
0.55374545 0.27398717 1.4299316
0.5628829 0.27505848 1.431985
0.57417077 0.27714145 1.439176
0.58455563 0.27874354 1.4437407
0.59294498 0.27936712 1.4431394
0.59478849 0.27692834 1.4266899
0.60678452 0.27921826 1.4345658
0.6174736 0.28086084 1.4390421
0.62467039 0.28089565 1.4352593
0.29445314 0.13091454 0.66708505
0.29663494 0.1304148 0.66273677
nan nan nan
nan nan nan
nan nan nan
nan nan nan
nan nan nan
nan nan nan
nan nan nan
nan nan nan
nan nan nan
0.2726413 0.10784707 0.53676802
0.28264543 0.11069443 0.55037934
0.28399596 0.11013003 0.54715025
0.28131333 0.10802782 0.53642499
0.27929872 0.10622022 0.52730423
0.27763379 0.10457885 0.51914185
0.28203613 0.10523234 0.52249855
0.28316984 0.10466541 0.51991928
nan nan nan
-0.76940221 0.26999533 1.325163
-0.78894389 0.27927566 1.3677701
-0.78907919 0.28178948 1.377328
-0.77279484 0.27843234 1.3584214
-0.76833653 0.27931392 1.3604541
-0.76513857 0.28067383 1.3650491
-0.75478172 0.27940851 1.3571382
-0.7477017 0.27934408 1.3553436
-0.7421217 0.27984408 1.3565736
-0.7394492 0.2814602 1.3635064
-0.73566961 0.28268158 1.3688322
-0.7246877 0.28113237 1.361064
-0.7195946 0.28185979 1.3646485
-0.71522903 0.28288913 1.370032
-0.70915931 0.28325811 1.3725588
-0.70097405 0.28278109 1.3713242
-0.69481915 0.28312173 1.3743887
-0.68811452 0.28324306 1.376717
-0.68282193 0.28395408 1.3822311
-0.67543858 0.28380135 1.3838426
-0.66590428 0.28273219 1.3812516
-0.65760225 0.28216907 1.3813701
-0.65379751 0.28354433 1.3912134
-0.64575857 0.28309309 1.392303
-0.63907886 0.28323448 1.3964717
-0.6326071 0.28347212 1.4012579
-0.62360752 0.28256971 1.4005078
-0.61560404 0.2821033 1.4019791
-0.60886735 0.28221333 1.4063613
-0.60250056 0.2824994 1.4116515
-0.5962618 0.28285292 1.4172895
-0.5859459 0.28125772 1.4131278
-0.57923192 0.28137395 1.4175075
-0.57184047 0.28115994 1.4201692
-0.5628776 0.28015849 1.418771
-0.55566961 0.28001642 1.4216326
-0.54744333 0.27935112 1.4217409
-0.54142553 0.27981025 1.4274743
-0.53174084 0.27836162 1.4233633
-0.52535504 0.27862459 1.4278859
-0.52085406 0.27990744 1.4375441
-0.51039857 0.27798179 1.4306071
-0.50292689 0.27765089 1.431742
-0.49653482 0.27791506 1.4358329
-0.48640782 0.27606687 1.428883
-0.47834572 0.27535471 1.4276789
-0.4741818 0.27689832 1.4380682
-0.46695429 0.27667195 1.4391679
-0.46239915 0.2780458 1.4484934
-0.45670643 0.27876675 1.4543279
-0.44969967 0.27869543 1.4559307
-0.44196093 0.2781612 1.4550098
-0.43429229 0.27765486 1.4541293
-0.42669368 0.27717778 1.4533004
-0.41916591 0.27673188 1.4525362
-0.4127785 0.27703655 1.4556203
-0.40580449 0.27695113 1.4565685
-0.39819589 0.27642229 1.4550962
-0.38925374 0.2749331 1.4484775
-0.38225076 0.27478495 1.4488379
-0.37375441 0.2735385 1.4433253
-0.36720121 0.27369443 1.4451351
-0.36133263 0.27437609 1.4496529
-0.35528415 0.2749446 1.4535086
-0.34469527 0.27195311 1.4384716
-0.33985645 0.27346939 1.4472108
-0.33271047 0.27315307 1.4461948
-0.32650033 0.27360788 1.4492041
-0.31952199 0.2734246 1.4487786
-0.31204659 0.27279884 1.4459541
-0.30598682 0.27341035 1.4496372
-0.2997686 0.27390462 1.4526525
-0.29249379 0.2734341 1.4505047
-0.28596291 0.27365321 1.4519715
-0.2801418 0.2745786 1.4571453
-0.27364615 0.27487242 1.4589294
-0.26618716 0.27418885 1.4554886
-0.25903386 0.27379268 1.4535379
-0.2508446 0.27225086 1.4454713
-0.24441403 0.27258545 1.447336
-0.23854488 0.27358294 1.4526923
-0.23213056 0.27399507 1.454914
-0.22505991 0.27363408 1.4530057
-0.21808766 0.27337396 1.4516108
-0.21229188 0.27461913 1.4581875
-0.20577697 0.27498561 1.460079
-0.1986679 0.27455595 1.4577262
-0.19148017 0.27398333 1.4545993
-0.1851729 0.27467483 1.4581696
-0.17976432 0.27680272 1.469352
-0.17335029 0.27748957 1.4728733
-0.16615409 0.27692935 1.4697665
-0.16001135 0.27815229 1.4761156
-0.15386701 0.2794821 1.4830245
-0.14712808 0.2798062 1.4845912
-0.14074418 0.2808708 1.4900833
-0.13273405 0.27863216 1.47805
-0.1258771 0.27870166 1.4782611
-0.11990724 0.28085703 1.4895358
-0.11317769 0.28138858 1.4921989
-0.10617162 0.28125721 1.4913497
-0.099312633 0.28152433 1.4926176
-0.092783913 0.28283858 1.4994416
-0.085465483 0.28176346 1.493605
-0.078272879 0.28094923 1.4891599
-0.071604431 0.28204098 1.4948249
-0.064575128 0.28179353 1.4934008
-0.057527568 0.28139704 1.4911965
-0.050514691 0.28108439 1.489447
-0.043692205 0.28190041 1.4936886
-0.036755588 0.28215003 1.4949403
-0.029883733 0.28313017 1.5000739
-0.022934144 0.28374818 1.5033005
-0.015905412 0.28350011 1.5019513
-0.0088518495 0.2820701 1.4943527
-0.0018800086 0.28229365 1.4955273
0.0051015671 0.28244415 1.4963275
0.012070692 0.2821297 1.4946772
0.019026075 0.28184199 1.4931812
0.026025029 0.28218099 1.4950179
0.032940429 0.2816622 1.4923222
0.040141206 0.28333881 1.5012703
0.047222197 0.28379732 1.5037766
0.054120671 0.2831822 1.500605
0.060981818 0.28253505 1.4972734
0.067666516 0.28128743 1.4907694
0.07458663 0.28115982 1.4902096
0.081530847 0.28113702 1.4902138
0.088422626 0.28095117 1.4893614
0.095283478 0.28070128 1.4881762
0.10266759 0.28192222 1.4947952
0.11030341 0.28363514 1.5040289
0.11722834 0.28342459 1.5030681
0.12396962 0.28281882 1.5000132
0.12980184 0.28031453 1.4868889
0.13576052 0.27832338 1.4764844
0.14219351 0.27744976 1.4720056
0.14902776 0.27740353 1.4719135
0.15532477 0.27640525 1.4667659
0.16169877 0.27562243 1.4627553
0.16994819 0.27797031 1.4753538
0.17616948 0.27694741 1.4700545
0.18153879 0.27471179 1.4583064
0.18778007 0.2739093 1.4541535
0.19550464 0.27525103 1.4613718
0.20240603 0.27538255 1.4621501
0.20797509 0.27375171 1.4535545
0.21715881 0.27683166 1.4699544
0.22451802 0.27746859 1.4733624
0.23147032 0.27757978 1.4739567
0.23725706 0.27632707 1.4672846
0.2429653 0.27505565 1.4604877
0.24985988 0.27515993 1.460968
0.25775757 0.27633399 1.4670985
0.26157948 0.27319083 1.4502767
0.26864326 0.27350637 1.4517843
0.27520129 0.27330419 1.4505078
0.27998984 0.27139652 1.4401432
0.28969818 0.27423537 1.4549249
0.296433 0.27419388 1.4543798
0.30159199 0.27272928 1.4462434
0.30878368 0.27312666 1.4479358
0.31436741 0.2721152 1.442111
0.32432947 0.27485663 1.4561201
0.3333697 0.27672032 1.465416
0.34075111 0.27715981 1.4671078
0.34542075 0.27541974 1.4572059
0.35095251 0.27442107 1.4511715
0.35971001 0.27593479 1.4583573
0.36767223 0.27679345 1.4620061
0.3743549 0.27667508 1.460422
0.37702867 0.27365121 1.4434403
0.38365296 0.27355069 1.441816
0.39285219 0.27525789 1.449635
0.40131688 0.27640107 1.454391
0.40825024 0.2764689 1.4533995
0.41417333 0.27586159 1.448776
0.42208397 0.27657634 1.4510057
0.42939788 0.27688354 1.4510002
0.43442824 0.27573171 1.4432601
0.44265628 0.27661371 1.44607
0.45086172 0.27745494 1.4485562
0.45788714 0.27755567 1.4470681
0.46444878 0.27737644 1.4440167
0.47046515 0.27688155 1.4392214
0.47783646 0.27718681 1.4384786
0.48658186 0.27826929 1.4416478
0.49391598 0.27852571 1.4404143
0.50679833 0.28186086 1.4549563
0.51031923 0.2799696 1.4423928
0.51602173 0.27930981 1.436087
0.52594799 0.28092352 1.4413484
0.53237784 0.28065199 1.4368126
0.53703928 0.27946714 1.4275106
0.54515105 0.28008512 1.4273201
0.55311698 0.28061357 1.4265622
0.56136793 0.28127176 1.4263572
0.5702129 0.28220782 1.4274578
0.58070189 0.28392506 1.4324019
0.58654588 0.28335732 1.425742
0.59421772 0.28367561 1.4234973
0.60349399 0.28474349 1.424966
0.60790104 0.28351575 1.4149396
nan nan nan
0.29811206 0.13590106 0.67454815
0.29690191 0.13384099 0.66254359
nan nan nan
nan nan nan
nan nan nan
nan nan nan
nan nan nan
nan nan nan
nan nan nan
nan nan nan
nan nan nan
0.26811466 0.10874488 0.52762616
nan nan nan
0.28167289 0.11199798 0.54254705
0.27851513 0.10966442 0.53101689
0.27999809 0.10918549 0.52860367
0.28519198 0.11014897 0.53330344
0.28611857 0.10946167 0.53013766
0.28613392 0.10844191 0.5254817
0.28263038 0.10611983 0.51462227
-0.76764315 0.27603757 1.3231868
-0.77974504 0.28284311 1.352839
-0.77784872 0.28464621 1.3586804
-0.76386875 0.28202021 1.3436038
-0.75883067 0.28267798 1.3444176
-0.74899316 0.28154364 1.3369514
-0.74985081 0.28444558 1.3488939
-0.74259388 0.28429455 1.3466074
-0.73659688 0.28462756 1.3468924
-0.7358833 0.28702754 1.3572397
-0.72684926 0.28619698 1.3526098
-0.71993554 0.2861934 1.3522037
-0.71257228 0.28600931 1.3512671
-0.70658571 0.28637958 1.3532774
-0.70186543 0.28727546 1.3581059
-0.69932002 0.28908825 1.3676101
-0.69211364 0.28899136 1.3684179
-0.68680817 0.2896944 1.3733429
-0.68101585 0.29020432 1.3776755
-0.67179549 0.28924888 1.3753494
-0.66237032 0.28818431 1.3727703
-0.65433538 0.28770843 1.3732409
-0.64847541 0.28818887 1.378511
-0.63987011 0.2874465 1.3781354
-0.63373315 0.28780884 1.3832302
-0.62846118 0.28857636 1.3904345
-0.61981738 0.28779548 1.3902971
-0.61259121 0.28766266 1.3933678
-0.60650122 0.28806642 1.3991035
-0.60025108 0.28840256 1.4045568
-0.59167397 0.28761542 1.4045457
-0.58236313 0.28644872 1.4026458
-0.57585353 0.28664836 1.4073952
-0.56793523 0.28614315 1.4086344
-0.55904269 0.28512862 1.4072878
-0.55167037 0.28487384 1.4096032
-0.544716 0.28483111 1.4128833
-0.53596985 0.28383845 1.4113488
-0.52834809 0.28342324 1.4125733
-0.52381516 0.28467584 1.4220184
-0.51644969 0.28440189 1.4237443
-0.50716901 0.28305164 1.4199567
-0.50089961 0.28336811 1.4244108
-0.49334928 0.2829586 1.4251046
-0.48534757 0.28227517 1.4242982
-0.48011887 0.28320795 1.4315389
-0.47056881 0.28158179 1.4257303
-0.46248376 0.28079754 1.4240565
-0.45954001 0.28315791 1.4382372
-0.45111504 0.28216112 1.435272
-0.44605878 0.2832731 1.4429318
-0.43916079 0.28323194 1.4446247
-0.432165 0.28312537 1.4458851
-0.42481229 0.28277782 1.4458159
-0.41759855 0.2825129 1.4460731
-0.40943959 0.28158915 1.4428605
-0.39933005 0.27927005 1.4323946
-0.39181641 0.27871796 1.4308928
-0.38767159 0.2805849 1.4417348
-0.37967768 0.27968276 1.4382734
-0.37148765 0.27860093 1.4338039
-0.36272112 0.27703887 1.4267796
-0.35786918 0.27846423 1.4350694
-0.35255548 0.27957794 1.4416937
-0.34255874 0.27694896 1.4289478
-0.33580753 0.2768915 1.4293997
-0.33050412 0.27804977 1.43607
-0.32393298 0.2781674 1.4373107
-0.3170321 0.2780008 1.4370275
-0.30889976 0.27672389 1.4309486
-0.30255562 0.27702788 1.4329926
-0.30078653 0.2816292 1.4572248
-0.291013 0.27877542 1.4428387
-0.28453383 0.27901709 1.4444258
-0.277888 0.27910307 1.4451661
-0.27181211 0.27977994 1.4489268
-0.26391771 0.27857184 1.4428877
-0.25653255 0.27785218 1.439342
-0.24952736 0.27751648 1.4377514
-0.24304186 0.27775621 1.4391111
-0.23636705 0.277787 1.4393595
-0.23034558 0.27860978 1.4436848
-0.22411351 0.27921972 1.446882
-0.21754941 0.27944091 1.4480419
-0.21068692 0.27928075 1.4472041
-0.20414503 0.27954903 1.4485668
-0.19737209 0.27950844 1.4483112
-0.19034988 0.27909952 1.4461308
-0.18441422 0.28031209 1.4523375
-0.17860861 0.28182226 1.4600723
-0.17151079 0.28133228 1.4574332
-0.16497423 0.28176051 1.4595416
-0.15842734 0.28220716 1.4617366
-0.15253507 0.2839123 1.4704425
-0.1461644 0.28484556 1.4751444
-0.1387461 0.28372854 1.4692245
-0.13141841 0.2826905 1.4637119
-0.12458099 0.28265107 1.4633696
-0.11820649 0.28371823 1.4687558
-0.11160334 0.28433406 1.4718059
-0.10470936 0.28424096 1.4711885
-0.097689614 0.28376961 1.468617
-0.091127217 0.28465584 1.4730754
-0.084589481 0.28576982 1.4787172
-0.077969484 0.2867789 1.4838213
-0.071195416 0.28736266 1.4867313
-0.064216875 0.28715804 1.48557
-0.057185434 0.28663877 1.4827901
-0.05025506 0.28655294 1.4822614
-0.043350697 0.28661165 1.4824903
-0.036557376 0.28756618 1.4873625
-0.029633371 0.28769901 1.4879954
-0.022617517 0.28674871 1.483037
-0.015692813 0.28662571 1.4823691
-0.0087862946 0.28690279 1.4837815
-0.0018618125 0.28647274 1.4815484
0.0050548618 0.28677696 1.4831246
0.011973084 0.28676668 1.4830858
0.018892333 0.28677952 1.483178
0.025784077 0.28647989 1.4816654
0.032719221 0.2866872 1.4827856
0.039687645 0.28706288 1.4847879
0.046469036 0.28617513 1.4802655
0.053575438 0.28725961 1.4859546
0.060601778 0.28771561 1.4884028
0.067340009 0.28685057 1.4840257
0.07369528 0.28466752 1.4728369
0.080715679 0.28520691 1.4757406
0.08779297 0.28584671 1.4791712
0.094765849 0.28607818 1.4804947
0.10167415 0.28609645 1.4807199
0.10860199 0.28616393 1.4812039
0.11510574 0.2851727 1.4762107
0.12127628 0.28351429 1.4677639
0.12860075 0.28458649 1.4734542
0.13514626 0.28391364 1.470109
0.14123744 0.28239724 1.4623929
0.14739344 0.28114408 1.4560357
0.15432842 0.28142169 1.4576014
0.16118507 0.28153905 1.4583316
0.16800983 0.2815935 1.4587282
0.17508608 0.28204879 1.4611932
0.18139294 0.281277 1.4572903
0.18793619 0.28091419 1.455494
0.19450067 0.28060734 1.4539739
0.19997516 0.27880147 1.4446706
0.20701385 0.27922288 1.4468918
0.21471269 0.28048012 1.4534254
0.22212274 0.28129479 1.4576452
0.22717077 0.27915859 1.4465514
0.23358302 0.27877358 1.4445084
0.24073569 0.2792691 1.4470013
0.24758412 0.27939424 1.4475473
0.25484788 0.27996904 1.4503926
0.26216516 0.2805714 1.4533479
0.26617587 0.27769384 1.4382446
0.2735157 0.27834547 1.4413851
0.28000405 0.27812004 1.4399457
0.2834239 0.27492875 1.4231138
0.2934677 0.27816185 1.4394937
0.30024323 0.27822182 1.4394038
0.3043896 0.27589613 1.4269277
0.31302294 0.27764991 1.4355022
0.32065988 0.27846485 1.4391663
0.32994941 0.28065211 1.4498618
0.33744508 0.2812562 1.4523157
0.34230456 0.27968255 1.443467
0.34847513 0.27922031 1.440298
0.35603097 0.27986449 1.442771
0.36356845 0.28047052 1.4449766
0.36879367 0.27930322 1.4379783
0.37437782 0.2784448 1.4325055
0.38158804 0.27880469 1.4332275
0.39022473 0.28017634 1.4390663
0.39935949 0.28185275 1.4463763
0.40478826 0.28090131 1.4401146
0.41082403 0.28039545 1.4360588
0.42075887 0.28252411 1.4453983
0.42345306 0.2798005 1.4298263
0.43191305 0.28091249 1.4337705
0.44046304 0.28204769 1.4377229
0.44842634 0.28277841 1.439502
0.45525709 0.28278375 1.4374824
0.46209186 0.28279135 1.4353703
0.467675 0.28204396 1.4293268
0.47466373 0.28215349 1.427524
0.48314559 0.28313491 1.4300148
0.49254927 0.28462163 1.4349259
0.50087464 0.28545299 1.4364007
0.50672209 0.28486878 1.4306389
0.5141083 0.28515363 1.4291342
0.52034372 0.28480113 1.4243268
0.52699208 0.28468084 1.4205792
0.53362387 0.28455487 1.4167024
0.54348332 0.28613135 1.4211854
0.55237108 0.28716308 1.422838
0.55893266 0.286975 1.4183496
0.56621128 0.28715515 1.4156038
0.57359004 0.28738108 1.413012
0.58382195 0.28901404 1.4172609
0.58966386 0.28846091 1.4107375
0.58699989 0.2838082 1.3842137
nan nan nan
nan nan nan
nan nan nan
0.29174769 0.13476887 0.65025926
nan nan nan
nan nan nan
nan nan nan
nan nan nan
0.2942026 0.12872976 0.61385238
nan nan nan
nan nan nan
nan nan nan
nan nan nan
nan nan nan
0.27087408 0.11146252 0.52712137
0.275397 0.11220969 0.53035235
0.28461358 0.11483613 0.54258966
0.28541735 0.11405025 0.53883296
0.28780526 0.11390635 0.5382393
0.28438133 0.11148673 0.5270142
0.28178927 0.10943551 0.51764053
0.2983551 0.11479346 0.54344285
-0.78749287 0.29000714 1.3585306
-0.76838368 0.28544623 1.3341771
-0.76499754 0.28669724 1.3372205
-0.76088089 0.28769439 1.3392669
-0.75712883 0.28884846 1.3422461
-0.75451291 0.29046094 1.3475674
-0.75007254 0.29139411 1.3499664
-0.73815203 0.28941175 1.339124
-0.73757833 0.29188275 1.349158
-0.73282593 0.29273099 1.3519615
-0.72532755 0.29248804 1.3500201
-0.71680665 0.29182416 1.3464444
-0.70595437 0.29018912 1.3387053
-0.70146787 0.29116431 1.3433299
-0.69842553 0.29276422 1.3511647
-0.69532871 0.29437292 1.3593764
-0.68949181 0.29484233 1.3626623
-0.68217474 0.29468188 1.3633634
-0.67569947 0.29488555 1.3660651
-0.66743362 0.29430383 1.3654294
-0.66311479 0.2954686 1.3731878
-0.6555922 0.29521549 1.3746305
-0.64482236 0.293479 1.3693901
-0.6383248 0.29367039 1.3733467
-0.63052702 0.2932612 1.3746805
-0.6240142 0.29344726 1.3789616
-0.6167227 0.29326716 1.3816521
-0.60834706 0.29256159 1.3819574
-0.60078675 0.29223651 1.3841201
-0.59833509 0.29441759 1.3982238
-0.58746099 0.29245695 1.3926829
-0.57906002 0.29169551 1.3928185
-0.56909871 0.29012042 1.3890188
-0.56172681 0.28984311 1.3913721
-0.55541921 0.29011485 1.3963097
-0.54954445 0.29062229 1.4023267
-0.54199666 0.29024661 1.404008
-0.53204423 0.28855711 1.3992257
-0.52443749 0.28811264 1.400364
-0.52441841 0.29187959 1.4219121
-0.51166439 0.2885645 1.4088628
-0.50452358 0.2883684 1.4108999
-0.49698558 0.28793684 1.4116716
-0.490421 0.28806514 1.4150774
-0.48476994 0.28874114 1.4210731
-0.47590473 0.28749472 1.4174936
-0.46868992 0.28722373 1.4186027
-0.46222264 0.28740957 1.4218607
-0.45371068 0.28631067 1.4186505
-0.44805419 0.28700775 1.4242326
-0.44076693 0.28666556 1.4245591
-0.43468389 0.28710806 1.428686
-0.42887777 0.28775042 1.4337171
-0.42255029 0.28805798 1.4369907
-0.40963376 0.28381038 1.4174256
-0.40476274 0.28508854 1.4253516
-0.39754891 0.28473192 1.4250219
-0.38977593 0.28395569 1.4225028
-0.38494754 0.285335 1.4307034
-0.37656862 0.2840848 1.4256408
-0.36756259 0.28230771 1.4178456
-0.36053216 0.28201041 1.4174016
-0.3538352 0.28196773 1.4181652
-0.34730601 0.28205961 1.4195383
-0.34080848 0.28218135 1.4209968
-0.33388251 0.28194609 1.4205943
-0.32683304 0.2815949 1.4195458
-0.32128176 0.28254676 1.4250094
-0.31374463 0.28175551 1.4216269
-0.306036 0.28077266 1.4172208
-0.29961646 0.28095523 1.4186449
-0.29357684 0.28151029 1.4219033
-0.28754747 0.28210112 1.4252971
-0.28118297 0.28238338 1.4270897
-0.27451396 0.28236604 1.4273266
-0.26939493 0.28398177 1.4357804
-0.26233062 0.28357694 1.4339819
-0.25528798 0.28317499 1.4321617
-0.2490489 0.2836667 1.434828
-0.24187815 0.28309521 1.4320847
-0.23470402 0.28248712 1.4291264
-0.22870412 0.28329811 1.4333197
-0.22322312 0.28481999 1.4410847
-0.21653897 0.28485337 1.4412951
-0.20980297 0.28481862 1.4411386
-0.20249683 0.28398189 1.436904
-0.19459404 0.28222272 1.4279839
-0.18918622 0.28408551 1.4373729
-0.18202354 0.28335324 1.4336172
-0.1756164 0.28378615 1.435743
-0.16932233 0.28444323 1.4389911
-0.16325369 0.28554875 1.4444971
-0.15716612 0.28671473 1.4502991
-0.15130349 0.28841421 1.4587916
-0.14458142 0.2885583 1.4594101
-0.13741159 0.28777879 1.4553533
-0.13037698 0.28721628 1.4523907
-0.12383404 0.28773463 1.4548919
-0.11762881 0.28914312 1.4618927
-0.11003017 0.28708908 1.4513873
-0.10359959 0.28801325 1.4559402
-0.097120225 0.28892189 1.4604164
-0.090440303 0.2893258 1.4623448
-0.083531722 0.2890045 1.4606112
-0.077309467 0.29121149 1.4716605
-0.070355661 0.29082426 1.4696052
-0.063637562 0.29143292 1.4725889
-0.056783266 0.29148963 1.4727912
-0.049711805 0.29029384 1.4666731
-0.043048512 0.29148027 1.4725997
-0.036319174 0.29258493 1.478122
-0.029354047 0.29186267 1.474424
-0.022429772 0.29122904 1.471184
-0.015581726 0.29146281 1.4723362
-0.0086919349 0.29066899 1.4683075
-0.0018473809 0.29110992 1.4705268
0.0050187213 0.29159582 1.4729836
0.011902939 0.2919645 1.4748591
0.018774947 0.29187337 1.4744221
0.025659986 0.29197937 1.4749914
0.032516286 0.29178268 1.4740415
0.039323553 0.29129139 1.4716128
0.046300475 0.29201615 1.4753371
0.05323204 0.29230428 1.4768649
0.059880577 0.2911503 1.4711145
0.066301823 0.28924191 1.4615589
0.073055327 0.2890037 1.4604496
0.080331475 0.29069734 1.4691098
0.08730942 0.29113054 1.4714063
0.094067819 0.29082191 1.4699587
0.10102388 0.29112479 1.4716058
0.10753867 0.29019839 1.4670417
0.11390718 0.28901157 1.4611623
0.12033762 0.28810695 1.4567094
0.12679532 0.28736064 1.4530563
0.13333851 0.28687394 1.4507141
0.13972121 0.28610551 1.446944
0.1461983 0.2855922 1.4444598
0.15328185 0.28625667 1.4479271
0.16013961 0.28646123 1.4490621
0.16665462 0.2860609 1.4471291
0.17346483 0.28617871 1.4478077
0.18031117 0.28634509 1.4487211
0.18633461 0.28523976 1.4431872
0.19329092 0.28558972 1.4450027
0.20068905 0.28654701 1.4498749
0.20607045 0.28465611 1.4403185
0.21150506 0.28295565 1.431706
0.21849059 0.28337049 1.4337759
0.22406937 0.28199038 1.4267414
0.23108701 0.28244838 1.4289825
0.23820281 0.2829974 1.4316571
0.24587509 0.28415963 1.4374049
0.2530205 0.28466749 1.4398111
0.25959307 0.28452131 1.4388767
0.2648896 0.28301907 1.4310511
0.27219167 0.2836808 1.4341315
0.27808785 0.28288069 1.4297832
0.28433174 0.2824634 1.4273304
0.29042259 0.28191674 1.4241823
0.29689008 0.28175193 1.422919
0.30412209 0.28230402 1.4252286
0.31113034 0.28262913 1.4263411
0.31882998 0.28355557 1.4304336
0.32481873 0.28295359 1.4267609
0.33134037 0.28283072 1.4254488
0.33871728 0.28342834 1.4277076
0.3466827 0.28448579 1.4322159
0.35227904 0.28359595 1.4268562
0.3583639 0.28312519 1.4235423
0.36525938 0.28330034 1.4234077
0.37245449 0.28369746 1.4243144
0.37957123 0.28402191 1.4247786
0.38741192 0.28486744 1.4277744
0.39495152 0.28546661 1.4294488
0.40209436 0.28576371 1.4295237
0.40833634 0.28542134 1.4263141
0.41311681 0.28408498 1.4180586
0.41980699 0.2840836 1.4163837
0.42821622 0.28522727 1.4203186
0.43710619 0.28665087 1.4255353
0.44326404 0.28626671 1.4216572
0.45122436 0.28704068 1.4234272
0.45962706 0.28806904 1.4263431
0.46765554 0.28883639 1.4278477
0.47248843 0.28763634 1.4195243
0.48142967 0.28893584 1.4234282
0.48870194 0.28921151 1.4221659
0.49552733 0.28921869 1.419472
0.5056712 0.29113632 1.4260265
0.51111817 0.29033455 1.4191425
0.51636678 0.28944287 1.4117298
0.52180827 0.28868109 1.4048651
0.53048843 0.28970757 1.4066002
0.53890431 0.29056549 1.407401
0.54953974 0.29258364 1.4136984
0.55684263 0.29279947 1.4111798
0.56291008 0.29236832 1.4054745
0.569704 0.29232034 1.4015574
0.57780415 0.29293576 1.4007683
0.58822167 0.29469767 1.4054018
0.57536322 0.28489327 1.3549693
nan nan nan
nan nan nan
0.27293515 0.1305756 0.61604095
0.31761351 0.15025687 0.70705318
nan nan nan
nan nan nan
nan nan nan
nan nan nan
0.29213023 0.13090679 0.60899973
nan nan nan
0.2599692 0.11408643 0.52892429
nan nan nan
nan nan nan
nan nan nan
nan nan nan
0.27544862 0.11493836 0.53036505
0.27095684 0.11196346 0.51652229
0.28397962 0.11621342 0.536138
0.28239617 0.11446197 0.52819216
0.2735818 0.1098405 0.50711215
0.27143773 0.10795861 0.49877736
0.25598475 0.10086744 0.46644664
-0.76295197 0.28758842 1.3173352
-0.76609552 0.29130048 1.3312998
