# .PCD v0.7 - Point Cloud Data file format
VERSION 0.7
FIELDS x y z
SIZE 4 4 4
TYPE F F F
COUNT 1 1 1
WIDTH 1492
HEIGHT 1
VIEWPOINT 0 0 0 1 0 0 0
POINTS 1492
DATA ascii
-0.48231232 0.17113855 1.6288681
-0.47383124 0.17082928 1.6270738
-0.46816942 0.17154288 1.6349274
-0.46177724 0.17200814 1.6403261
-0.45546606 0.17251971 1.6460809
-0.44525632 0.17154686 1.6375818
-0.4379977 0.17169693 1.6397133
-0.43049559 0.17175516 1.6408871
-0.42100897 0.17100935 1.6342989
-0.41889256 0.17328496 1.656514
-0.4106718 0.17307344 1.6548864
-0.40107891 0.17226443 1.6474739
-0.39452109 0.17275289 1.6524024
-0.38563016 0.17221881 1.6474868
-0.37783217 0.17216107 1.6470662
-0.37115279 0.17262121 1.6515427
-0.3651098 0.17340304 1.6590421
-0.35702246 0.17322676 1.6573224
-0.34872663 0.1729393 1.6544894
-0.34123403 0.17304617 1.6553822
-0.33583489 0.17424418 1.6666673
-0.32804111 0.17422704 1.6662867
-0.32097915 0.17460714 1.6696658
-0.31383735 0.17496164 1.6727623
-0.30497584 0.17435101 1.6665983
-0.29764029 0.17460369 1.6686562
-0.29127327 0.17545331 1.6763877
-0.2844857 0.17608948 1.6820503
-0.27619171 0.17580286 1.6788737
-0.26715079 0.17501019 1.6708461
-0.25866449 0.17454413 1.6659211
-0.25238934 0.17558746 1.6753851
-0.24574101 0.1764296 1.68291
-0.24031878 0.17823674 1.6996205
-0.23009811 0.17648697 1.6824037
-0.22289748 0.17701171 1.6868663
-0.21508494 0.17707115 1.6868883
-0.20645615 0.17643759 1.6803079
-0.19899653 0.17679258 1.6831428
-0.19114123 0.17681082 1.6827723
-0.18327476 0.1768198 1.682318
-0.17712346 0.17855871 1.6983232
-0.16965224 0.17906792 1.702634
-0.16241479 0.17988634 1.7098912
-0.1541521 0.17959522 1.7066125
-0.14633127 0.17981519 1.7082044
-0.13876507 0.18039167 1.7131966
-0.13066205 0.18029825 1.7118431
-0.12206917 0.17947236 1.7035565
-0.11454529 0.18021259 1.7101564
-0.10674345 0.18059412 1.7133716
-0.098779179 0.18074062 1.7143798
-0.090929374 0.18114114 1.7178209
-0.082127444 0.17953825 1.7022914
-0.074372545 0.18012537 1.7075551
-0.066634119 0.18089914 1.7146145
-0.058661979 0.18116412 1.716879
-0.050580859 0.18112332 1.7162753
-0.042508986 0.18110645 1.7159293
-0.034377556 0.18076847 1.7125728
-0.02628687 0.18050359 1.7099404
-0.018278299 0.18081753 1.7128239
-0.010244231 0.1811752 1.7161539
-0.0021720037 0.18100819 1.7145466
0.0058733886 0.18047379 1.7094922
0.013929761 0.18069939 1.7116694
0.021919804 0.18021445 1.7071487
0.029891366 0.17987826 1.704069
0.038037963 0.18051487 1.710237
0.045945708 0.17999358 1.7054667
0.054147307 0.18060735 1.711482
0.06217768 0.18056507 1.7113118
0.06991335 0.1797747 1.7040795
0.077730432 0.17933458 1.7001944
0.085507706 0.17889322 1.6963235
0.093436547 0.1788172 1.695942
0.10125544 0.17855918 1.693859
0.10902524 0.17825852 1.6913946
0.11706278 0.17840669 1.6932111
0.1250941 0.17852718 1.6947864
0.13273509 0.17810951 1.6912723
0.14064044 0.17807366 1.6914006
0.14805759 0.17745648 1.6860222
0.15560439 0.17704941 1.6826518
0.16382292 0.17740904 1.6865807
0.17186466 0.17755291 1.6884712
0.17937596 0.17716023 1.6852677
0.1867291 0.17665103 1.6809602
0.19373551 0.17586827 1.6740512
0.2023893 0.17658371 1.6814055
0.21156165 0.17768109 1.6924036
0.21683814 0.17554536 1.6726021
0.22669268 0.17713557 1.6882966
0.23407748 0.17675389 1.6851945
0.24168159 0.17655723 1.6838472
0.24934427 0.17641442 1.6830021
0.2555438 0.17527679 1.6726502
0.26162532 0.17412804 1.6621705
0.27047569 0.17483521 1.6693889
0.27914354 0.17538817 1.6751182
0.28859773 0.17639162 1.6851315
0.30124182 0.17923985 1.7127528
0.30179507 0.1749327 1.6719692
0.3105973 0.17550343 1.6777698
0.31962213 0.17616884 1.6844447
0.32486191 0.17476611 1.671309
0.334824 0.17591004 1.6824888
0.34358457 0.17638484 1.6872302
0.3531948 0.17726485 1.6958057
0.36006305 0.1767603 1.6910896
0.36749855 0.17654984 1.6891375
0.37267092 0.17528376 1.6770337
0.37860081 0.17441863 1.668712
0.38902286 0.17561617 1.6800666
0.40092075 0.1774196 1.6971551
0.40898532 0.17748974 1.6975975
0.41745609 0.17773019 1.6996015
0.42869863 0.17911977 1.712521
0.42442542 0.17409419 1.6640426
0.43094081 0.17359492 1.658767
0.44101474 0.17452146 1.6670362
0.45247075 0.17595333 1.6800423
0.46359819 0.17721088 1.691288
0.47372663 0.17805085 1.6984502
0.48132479 0.17792779 1.6963296
0.48770133 0.17736444 1.6899191
0.49580964 0.17743881 1.689489
0.50362134 0.17740637 1.6879387
0.51410639 0.17830211 1.6951067
0.52180141 0.17821766 1.6928403
0.52294123 0.17593041 1.6695578
0.53141135 0.1761404 1.6698761
0.53926575 0.17614318 1.6681092
0.5486387 0.17663474 1.6708436
0.56071264 0.17796971 1.6814089
0.57293749 0.1793147 1.6919065
0.58026844 0.17911208 1.6876537
0.59204 0.18026708 1.6960419
0.60156244 0.18071547 1.6976184
0.60862017 0.18042141 1.6920744
0.61615211 0.18027374 1.6877645
0.62482697 0.18045996 1.6864319
0.63819146 0.18197872 1.6973721
0.64873689 0.18266557 1.700362
0.65730649 0.18278596 1.6979115
0.65949982 0.181152 1.6790444
0.67510587 0.1831972 1.6941205
0.68627775 0.18400466 1.6975435
0.6922124 0.18340543 1.6878426
0.69867402 0.18295819 1.6794298
0.70888811 0.18349259 1.6798991
0.72127891 0.18457176 1.6852008
0.73373038 0.18564199 1.6902645
0.74289274 0.18586545 1.6874994
0.75072521 0.18575491 1.6816328
0.76538903 0.18731871 1.6908425
0.78398991 0.18980189 1.7082291
nan nan nan
nan nan nan
0.27584505 0.064688571 0.57714051
0.28629062 0.066444091 0.59114224
0.28809693 0.066179149 0.58719099
0.29502532 0.06708426 0.59368187
nan nan nan
0.26833737 0.059804365 0.52676785
0.26557624 0.058607168 0.51515383
0.27156168 0.059344679 0.52067
0.27276799 0.059033651 0.51710445
0.26872686 0.057603732 0.50389081
0.26178551 0.055585053 0.48569727
0.26487532 0.055714171 0.48642129
0.26694521 0.055628348 0.48540193
-0.91893041 0.18694267 1.5687238
-0.89638698 0.18395241 1.5414956
-0.88664579 0.18355975 1.5364101
-0.88519549 0.18489179 1.5461076
-0.87761867 0.18495665 1.5455701
-0.86237007 0.18339124 1.5318019
-0.84526414 0.18139854 1.5148717
-0.83185089 0.18016882 1.504719
-0.81507146 0.17818032 1.488631
-0.79400885 0.17520922 1.4647206
-0.78239173 0.17428578 1.4583057
-0.76843303 0.17281802 1.447708
-0.74938279 0.17016567 1.4275196
-0.72337204 0.16586545 1.3937728
-0.71389496 0.1653088 1.391742
-0.71086586 0.16624904 1.4026229
-0.7050221 0.16654332 1.4083511
-0.69893008 0.16678436 1.413882
-0.69232649 0.16690703 1.4186249
-0.68592328 0.16708104 1.4239833
-0.68025774 0.16744028 1.4310688
-0.67571402 0.16808622 1.4407301
-0.66726696 0.1677646 1.4421735
-0.6601944 0.16778535 1.446588
-0.65433908 0.16811927 1.4537189
-0.6477623 0.16827323 1.4592869
-0.64097589 0.16837554 1.4643722
-0.63469511 0.16861449 1.4705929
-0.62854314 0.16889353 1.4770979
-0.62236059 0.16917072 1.4835082
-0.61595273 0.16939247 1.4893399
-0.60984671 0.16970347 1.495856
-0.60361964 0.16998783 1.5020297
-0.59754092 0.1703214 1.5085254
-0.59099066 0.17052712 1.5137695
-0.58570266 0.17110673 1.522215
-0.57882071 0.17122944 1.5264744
-0.57219923 0.1714333 1.531327
-0.56734669 0.17217928 1.5409032
-0.56078017 0.17241786 1.5458192
-0.5540781 0.17262053 1.5502859
-0.54765284 0.17291608 1.5554613
-0.54188746 0.17343083 1.5624894
-0.53601694 0.17392577 1.5692236
-0.53106469 0.17473674 1.5786995
-0.52414864 0.17491543 1.5823507
-0.51740777 0.17515859 1.5864687
-0.51163912 0.17574281 1.5935658
-0.50590205 0.17635542 1.6008172
-0.50022501 0.17700775 1.6083277
-0.49257585 0.17697155 1.6094779
-0.48687187 0.17764392 1.6169704
-0.47974125 0.17780879 1.6197463
-0.47430858 0.17861843 1.6283019
-0.46576673 0.17826447 1.6261554
-0.45916811 0.17865483 1.6307048
-0.45121667 0.17852314 1.6303991
-0.44335172 0.17842171 1.6302807
-0.43582422 0.178455 1.6313088
-0.42782333 0.17829213 1.6304613
-0.41981149 0.17811869 1.6294382
-0.41270727 0.17833109 1.6318694
-0.4073559 0.17932305 1.6413652
-0.39988276 0.1794011 1.6424282
-0.39242813 0.17949066 1.6435302
-0.3848621 0.1795318 1.6441256
-0.37735555 0.17960294 1.6449348
-0.37134573 0.18040411 1.6523727
-0.36346605 0.18031162 1.6515703
-0.35504538 0.17994092 1.6481673
-0.34746647 0.17998989 1.6485584
-0.34065026 0.18044508 1.6526227
-0.33232379 0.18010283 1.6493393
-0.32637906 0.18106571 1.6579658
-0.31912783 0.18133286 1.660181
-0.31138402 0.18132643 1.6598549
-0.30498263 0.18212134 1.6668288
-0.29560146 0.18113188 1.6574407
-0.28933942 0.1820519 1.6654965
-0.2809768 0.18166453 1.6615641
-0.27402887 0.18219577 1.6660095
-0.26563433 0.18176809 1.6616654
-0.25848055 0.18218933 1.6650628
-0.25026387 0.1818642 1.6616219
-0.24395902 0.18295209 1.6710755
-0.23606545 0.18288101 1.6699286
-0.22992839 0.1842124 1.6815746
-0.22286223 0.18486722 1.687032
-0.21386731 0.1839115 1.6777878
-0.20549321 0.1834372 1.6729368
-0.19779733 0.18355472 1.6734838
-0.19038968 0.18396044 1.6766584
-0.18286231 0.18428038 1.6790526
-0.17576808 0.18508516 1.6858665
-0.16956696 0.18695028 1.7023389
-0.16117986 0.18647043 1.6974645
-0.15302372 0.18622187 1.6947086
-0.14516738 0.18633093 1.6952208
-0.1375812 0.18681942 1.6991985
-0.12953001 0.18669777 1.6976426
-0.12166332 0.18684345 1.6985356
-0.11387328 0.18713558 1.700779
-0.1061679 0.18762133 1.7048012
-0.098170884 0.18762888 1.7045006
-0.090163775 0.18761677 1.7040451
-0.082248852 0.18781281 1.7055048
-0.073889725 0.18692736 1.6971712
-0.066114195 0.18748273 1.7019469
-0.0582809 0.18800454 1.7064449
-0.050342709 0.18830046 1.70892
-0.042269833 0.18810934 1.7070051
-0.034218039 0.18794443 1.7053589
-0.026149809 0.18756083 1.7017591
-0.018022943 0.18623321 1.6896267
-0.010096811 0.18652208 1.6921916
-0.0021579177 0.18784481 1.7041672
0.0058554541 0.18793714 1.7050123
0.013816502 0.18721378 1.6984888
0.021794479 0.18716562 1.6981223
0.029780788 0.18719564 1.6984967
0.037693202 0.18684667 1.6954631
0.045377828 0.18568739 1.6851054
0.053377111 0.18596886 1.6878519
0.061499659 0.18655142 1.6933612
0.069927953 0.18782176 1.7051442
0.077536225 0.18685478 1.6966438
0.08515282 0.18608625 1.6899698
0.093078099 0.18606582 1.6901133
0.10101419 0.18606852 1.6904916
0.1089263 0.18602984 1.6905172
0.1166464 0.18569079 1.6878343
0.12425439 0.18522769 1.6840422
0.13245787 0.18565461 1.688361
0.14036745 0.18564467 1.6887256
0.14781477 0.18505706 1.6838495
0.15536131 0.18464693 1.6805998
0.16321109 0.1846194 1.6808437
0.17119026 0.18473402 1.6823921
0.17896509 0.18462776 1.6819379
0.18515301 0.18296231 1.6672815
0.1922138 0.1822592 1.6613922
0.20034726 0.18258837 1.6649145
0.20928082 0.18359478 1.6746162
0.21784949 0.18422003 1.6808444
0.22395797 0.1827938 1.6683484
0.23297572 0.18375817 1.6776645
0.23964161 0.1828651 1.6700139
0.24664442 0.18227734 1.6651373
0.25343201 0.18157127 1.6591638
0.26097658 0.18143335 1.6583643
0.26967669 0.18208358 1.6647524
0.27842554 0.18272941 1.6710833
0.2852245 0.1820952 1.665686
0.29358208 0.1824633 1.6694313
0.30130467 0.18242791 1.669458
0.30936247 0.18259217 1.6712822
0.31660235 0.18227747 1.668689
0.32510942 0.18268993 1.6727179
0.33110702 0.18170595 1.6639217
0.34312972 0.18399778 1.685084
0.3458046 0.18128662 1.6603843
0.35509357 0.1820856 1.6677864
0.36407048 0.18269379 1.6733922
0.37169749 0.18261331 1.6726387
0.37828058 0.18203379 1.6672599
0.38420376 0.18116638 1.6591882
0.39318141 0.18174508 1.6643002
0.40291119 0.18264237 1.6722653
0.41422319 0.18420926 1.6862906
0.41475508 0.181013 1.6566476
0.4207845 0.18028902 1.6495676
0.43064135 0.18120149 1.6573856
0.44025674 0.18198197 1.6639129
0.44855255 0.1821994 1.6652071
0.45913404 0.18332209 1.6746849
0.46498764 0.18255104 1.666773
0.47300613 0.18264128 1.6666374
0.48790121 0.18534084 1.6902015
0.49257424 0.18413317 1.6780263
0.50012469 0.18402213 1.675751
0.51188022 0.1854379 1.687264
0.51341617 0.18316464 1.6651092
0.51966578 0.18261601 1.6585435
0.52610171 0.18214804 1.6526048
0.53568375 0.18276714 1.6564087
0.54360265 0.18280914 1.6548545
0.5554617 0.18415627 1.6649737
0.56716132 0.18541373 1.6741232
0.57394058 0.18505019 1.6684927
0.58210385 0.18513668 1.6667874
0.59591728 0.18699381 1.6808573
0.60165912 0.18630256 1.6718616
0.60743821 0.18564072 1.6630063
0.61590576 0.18580697 1.6614316
0.62924105 0.18741885 1.672606
0.63828969 0.18772951 1.6719856
0.64487541 0.1873171 1.6647789
0.65509242 0.18795663 1.6667699
0.66309524 0.1879531 1.6628999
0.67338979 0.1885915 1.6645542
0.68367618 0.18921255 1.6658908
0.69311243 0.18958659 1.6649002
0.70162529 0.18970233 1.6615078
0.71329749 0.19065988 1.6653531
0.72650951 0.19200285 1.6724117
0.73642504 0.19245437 1.6715811
0.74433243 0.1923769 1.6660873
0.75449044 0.19287649 1.6655444
0.77680111 0.19643848 1.6913352
nan nan nan
nan nan nan
nan nan nan
0.29625672 0.071819782 0.61132193
0.29411638 0.070571341 0.59908843
0.28828627 0.068471827 0.57978368
0.29138055 0.068512835 0.57874054
nan nan nan
0.26498446 0.061081342 0.51378101
0.27059519 0.0617675 0.51861888
0.26876509 0.060758315 0.50935084
0.27014458 0.060487054 0.50641555
0.27179915 0.060281932 0.50417328
0.27868378 0.061229754 0.51170641
0.29941311 0.065173574 0.54439509
-0.90652895 0.19228423 1.5480384
-0.89314944 0.19110419 1.5363463
-0.88353109 0.19071518 1.5313621
-0.87779206 0.19116408 1.5334532
-0.87504953 0.19227947 1.5412452
-0.85773855 0.19018485 1.5236901
-0.8434456 0.18872723 1.5116409
-0.82263404 0.18577059 1.4879867
-0.80962998 0.18453841 1.4785428
-0.79999918 0.1840591 1.4755291
-0.78694355 0.18277527 1.4664567
-0.77405119 0.1815051 1.4578691
-0.76094645 0.18016003 1.449037
-0.72519296 0.17337398 1.3967053
-0.71697628 0.17310221 1.3970927
-0.71075255 0.17331095 1.4016659
-0.70633942 0.17396988 1.4101756
-0.70010781 0.17418979 1.4153924
-0.69427979 0.17451563 1.4216967
-0.68834931 0.17482224 1.4280384
-0.6835115 0.17541568 1.4368877
-0.67635429 0.17542018 1.4410361
-0.66823292 0.17517203 1.4431783
-0.66088951 0.17512462 1.4470102
-0.65481699 0.17541665 1.4536667
-0.6482541 0.17558232 1.4592748
-0.64149016 0.17569663 1.4644268
-0.63483846 0.17584462 1.4698093
-0.62877667 0.17616127 1.4765394
-0.62466073 0.17703678 1.4878919
-0.6180191 0.17720857 1.4932538
-0.61054891 0.17714407 1.4965162
-0.60425609 0.17742372 1.5025721
-0.59749472 0.17757089 1.5073909
-0.59125423 0.17787841 1.5134512
-0.58527064 0.17827184 1.520124
-0.57886285 0.17854437 1.5256443
-0.5733912 0.17911628 1.5336025
-0.56686586 0.17936958 1.5387114
-0.56091762 0.17981455 1.5453409
-0.55417597 0.1800136 1.5497327
-0.54824698 0.18048552 1.5563508
-0.54244661 0.18101327 1.5633333
-0.53622293 0.18141241 1.5690885
-0.5306617 0.18204999 1.576792
-0.52452058 0.18250397 1.5827943
-0.51852828 0.1830236 1.589255
-0.51258701 0.1835767 1.5958986
-0.50660944 0.18413304 1.6024653
-0.49887434 0.1840578 1.6034267
-0.49185613 0.18424876 1.6065983
-0.48542076 0.18466738 1.6116529
-0.4784022 0.18487386 1.6147574
-0.47042623 0.1847111 1.6145368
-0.46587563 0.18590987 1.6261257
-0.45687258 0.18534221 1.6221738
-0.4493081 0.18534879 1.623154
-0.44160247 0.1852964 1.6235294
-0.43484217 0.1856458 1.627342
-0.42708564 0.18557471 1.6273881
-0.41845512 0.1851144 1.6239411
-0.41085061 0.18509939 1.6243232
-0.40465447 0.18573026 1.6303031
-0.39954013 0.18689124 1.6408703
-0.39109075 0.18650711 1.6378064
-0.38338646 0.18647009 1.6377263
-0.37654644 0.18686044 1.6413392
-0.36993471 0.18738261 1.6460522
-0.36214283 0.18731645 1.6455421
-0.3536211 0.18686174 1.6415658
-0.34531608 0.18650402 1.6383919
-0.3376624 0.18648984 1.6381887
-0.33093074 0.18699603 1.6425121
-0.32476729 0.18785483 1.6498903
-0.31705287 0.18783636 1.6495235
-0.31015447 0.18831244 1.6534623
-0.30224484 0.18818316 1.6520512
-0.29605779 0.18914767 1.6602094
-0.28578734 0.18748508 1.6452813
-0.28245583 0.19040848 1.6705686
-0.27170375 0.18835351 1.6521522
-0.26427421 0.18854909 1.6534584
-0.25616553 0.18825732 1.6504718
-0.25006279 0.18946733 1.6606326
-0.24261063 0.18969963 1.6622065
-0.23543304 0.19016902 1.6658436
-0.22865091 0.19100085 1.6726425
-0.22150277 0.19157496 1.677173
-0.21291147 0.19089723 1.6707389
-0.2046075 0.19043536 1.666194
-0.19735083 0.19095027 1.6701938
-0.19011153 0.19152509 1.6747158
-0.18247783 0.19173487 1.6760468
-0.17407095 0.19111468 1.6701285
-0.16725169 0.19226114 1.6796545
-0.15947977 0.19237161 1.680135
-0.1513032 0.19198011 1.6762432
-0.14380781 0.19245735 1.6799492
-0.13651332 0.1932743 1.6866312
-0.12833939 0.19287007 1.6826711
-0.12100239 0.19375296 1.6899571
-0.1133153 0.19415975 1.6931065
-0.10508404 0.19362521 1.6880684
-0.097295456 0.19388567 1.6899831
-0.089627214 0.19445342 1.6945981
-0.081409313 0.19382311 1.6887965
-0.073382087 0.19355974 1.6862187
-0.065678991 0.19419104 1.691461
-0.057834916 0.19452184 1.6941113
-0.049797896 0.19420567 1.6911552
-0.041825261 0.19406831 1.6897852
-0.03397746 0.19458142 1.6941081
-0.026034622 0.19469778 1.6950061
-0.017948875 0.19337699 1.6834234
-0.010037346 0.19333079 1.6829673
-0.0021363324 0.19389622 1.6878656
0.0058183959 0.19471142 1.6949691
0.013761083 0.19441438 1.6924212
0.021681601 0.19413646 1.6900702
0.029593186 0.19394897 1.6885362
0.037352972 0.19305615 1.6808913
0.045374963 0.19359368 1.685729
0.053264789 0.19349132 1.6850241
0.061303411 0.19388607 1.6886771
0.069613956 0.19495191 1.6982043
0.077320591 0.19428127 1.6926321
0.084856704 0.19334707 1.6847876
0.092524633 0.19284688 1.6807475
0.10091911 0.19382063 1.6895778
0.10878367 0.19370897 1.68897
0.11629093 0.19301943 1.6833432
0.12361362 0.19213064 1.6759953
0.13137095 0.19198331 1.6751312
0.13955921 0.19244683 1.6796143
0.14760239 0.19267145 1.6820295
0.15458861 0.19156356 1.6728224
0.16269268 0.19188093 1.6760714
0.17012642 0.19141489 1.6724867
0.17717367 0.19057414 1.6656325
0.18428686 0.18987219 1.6599938
0.191137 0.18896696 1.6525768
0.19855885 0.18867531 1.6505259
0.20644325 0.18882859 1.6523657
0.21402413 0.18870318 1.6517655
0.2230691 0.18983245 1.6621461
0.23001444 0.1891591 1.6567378
0.23670346 0.1883256 1.6499141
0.24436201 0.18829171 1.6500832
0.25227121 0.18844712 1.651898
0.25975895 0.18828784 1.650939
0.26792458 0.18861493 1.6542267
0.27521265 0.18832323 1.6520677
0.28263927 0.18813965 1.6508334
0.29076964 0.1884218 1.6536604
0.29809305 0.18818001 1.6518617
0.30582732 0.18820319 1.6523584
0.31686798 0.19021003 1.6702409
0.32278419 0.18911827 1.6608806
0.32875523 0.18810897 1.6522039
0.33466014 0.18710886 1.6435655
0.34183988 0.18685032 1.6413974
0.34975082 0.18699402 1.642717
0.35973847 0.18821809 1.6534792
0.36914739 0.18909445 1.6611354
0.3775152 0.18941246 1.6638315
0.38378873 0.18868804 1.6573139
0.38999689 0.18796067 1.6507119
0.39855874 0.18837388 1.6540639
0.40814999 0.18924871 1.6614013
0.41398627 0.1883823 1.6533834
0.41969484 0.18749052 1.6450754
0.42842516 0.18795641 1.6486063
0.43340164 0.18678802 1.6377275
0.44664019 0.18915926 1.6577979
0.4506917 0.18762514 1.6435544
0.45698988 0.18706201 1.6377388
0.46580234 0.18752967 1.6408581
0.48898205 0.19367264 1.6935041
0.48494458 0.18901163 1.6515728
0.49654728 0.19049716 1.6632676
0.50511038 0.19078867 1.6644197
0.51361442 0.19104932 1.6651899
0.51175278 0.18750425 1.6327052
0.52587169 0.1898326 1.6512589
0.53481233 0.19025108 1.6530566
0.54043764 0.18949516 1.644532
0.54574996 0.18865238 1.6351461
0.55875313 0.19045457 1.6485468
0.57021558 0.19168928 1.656868
0.57959038 0.1921982 1.6587591
0.59220546 0.19375363 1.6695157
0.59126651 0.19089201 1.6420908
0.60664558 0.19330467 1.6598997
0.61638379 0.19388095 1.6617486
0.62136567 0.19296548 1.6506722
0.62648934 0.19211645 1.640048
0.64060313 0.19401118 1.6526821
0.65078503 0.19468333 1.6547097
0.65756279 0.19433318 1.6478994
0.66646123 0.19461063 1.6462733
0.67758489 0.19552366 1.6498653
0.68811768 0.19624688 1.6516941
0.69553292 0.19607458 1.6458561
0.70327628 0.19599761 1.6407186
0.71949434 0.19825763 1.6550013
0.72911608 0.19866987 1.6537231
0.73860544 0.19903739 1.6520005
0.7524175 0.20054902 1.6596996
nan nan nan
nan nan nan
0.2932395 0.075684696 0.62090909
0.29548877 0.07546857 0.61738706
nan nan nan
nan nan nan
0.28700766 0.071075127 0.5768683
0.28403324 0.069633245 0.56383699
nan nan nan
0.2704775 0.065006301 0.52419883
0.26509038 0.063091382 0.50787288
0.27032891 0.063717909 0.51214868
0.27230802 0.06357155 0.51033783
0.27997282 0.064742737 0.51923221
0.28363103 0.064974166 0.52071983
0.26034224 0.059085578 0.47332153
-0.88680291 0.19579343 1.514861
-0.88969308 0.19815058 1.5308497
-0.88101768 0.19795071 1.5273842
-0.87685096 0.19876935 1.532114
-0.86545932 0.19795018 1.5245773
-0.84925777 0.19600609 1.5087628
-0.83761859 0.19508901 1.5012472
-0.82270032 0.19338419 1.4880651
-0.81135172 0.19249451 1.4815521
-0.79994631 0.19157447 1.4752015
-0.79009962 0.1910138 1.472012
-0.77708745 0.18966976 1.4631677
-0.75111294 0.18510523 1.4298085
-0.7330485 0.18241981 1.411249
-0.71835995 0.18052982 1.399124
-0.71235859 0.18080704 1.4040865
-0.70699662 0.18125372 1.4106636
-0.70098042 0.18154015 1.416263
-0.69503123 0.18184993 1.422279
-0.68932366 0.18223004 1.4290482
-0.6831423 0.18249157 1.4350537
-0.67636645 0.18259816 1.4399666
-0.66857529 0.18242997 1.4427948
-0.66183764 0.18254875 1.4479419
-0.65528929 0.18272288 1.4535563
-0.64887393 0.18293837 1.4595027
-0.64199781 0.18302736 1.464417
-0.63568598 0.18328102 1.470606
-0.63166881 0.18420972 1.4821687
-0.62539357 0.18449377 1.488487
-0.61722106 0.18421823 1.4901937
-0.61151779 0.18468188 1.4977763
-0.60432649 0.18470186 1.5016553
-0.59812486 0.18502849 1.5079117
-0.59156305 0.18525034 1.5131978
-0.58547914 0.18562928 1.519648
-0.57924414 0.18596926 1.5256591
-0.57295483 0.18630026 1.5314738
-0.56757534 0.18693948 1.5397036
-0.56082803 0.18713906 1.5441911
-0.55454433 0.18750069 1.54989
-0.54837364 0.18791078 1.5558683
-0.54323149 0.18868935 1.5647825
-0.53717941 0.18916899 1.5711054
-0.53024048 0.18934543 1.574791
-0.52399862 0.18977934 1.580501
-0.5188486 0.19062693 1.589548
-0.51201534 0.19087188 1.593462
-0.50503856 0.19106981 1.596872
-0.49756831 0.19108419 1.5986366
-0.49077007 0.19136104 1.6024898
-0.48297721 0.19125266 1.6030115
-0.47381863 0.19059147 1.5987914
-0.46906203 0.19170821 1.6093881
-0.46153516 0.19171065 1.6105404
-0.45607802 0.19258718 1.6189466
-0.4476926 0.19223587 1.616943
-0.43799061 0.19129752 1.6099081
-0.43316391 0.19249293 1.6207469
-0.4249917 0.19221766 1.6191248
-0.41375896 0.19052315 1.6054633
-0.40868822 0.19165589 1.6155491
-0.40379098 0.19291408 1.6266265
-0.39294642 0.19132465 1.6136233
-0.3872706 0.19223894 1.6216682
-0.38264707 0.1937224 1.6344547
-0.37385118 0.19311082 1.6295059
-0.36560801 0.19276534 1.6267428
-0.35723752 0.19233666 1.6232228
-0.35084137 0.19297545 1.6286588
-0.34256655 0.19258629 1.6253694
-0.33556581 0.19291197 1.6280663
-0.32965016 0.19389094 1.6362317
-0.32173264 0.19371098 1.6345745
-0.31623861 0.19501673 1.6454144
-0.30743757 0.19429736 1.6391296
-0.30044368 0.19471255 1.6423829
-0.29232866 0.19440387 1.6394982
-0.28558689 0.19501635 1.6443528
-0.27803433 0.19509369 1.644667
-0.27081954 0.19541913 1.6470482
-0.26262063 0.19503272 1.6434073
-0.25508541 0.19513081 1.6438304
-0.24737686 0.19509824 1.6431353
-0.24018709 0.19548585 1.6459639
-0.23482133 0.19743262 1.6619022
-0.22721861 0.19756739 1.6625727
-0.21923962 0.19737297 1.6604651
-0.21138598 0.19728124 1.6592159
-0.20385543 0.19749556 1.660537
-0.19590935 0.19730836 1.6584803
-0.18866649 0.19784312 1.6624917
-0.18063392 0.19756016 1.6596332
-0.17241734 0.19704148 1.6548011
-0.1660651 0.19870482 1.6682972
-0.15866002 0.19921038 1.6720766
-0.15050466 0.19877742 1.6679876
-0.14309777 0.19933973 1.6722622
-0.13550091 0.19968724 1.6747456
-0.127535 0.19950014 1.6727604
-0.11969855 0.1995043 1.6723958
-0.11207564 0.19988993 1.6752461
-0.10401254 0.19948941 1.6715274
-0.096572094 0.20031513 1.6781033
-0.088984162 0.20095438 1.6831371
-0.081018195 0.20078123 1.6813887
-0.07303264 0.20051691 1.6789018
-0.065124862 0.20042804 1.6779097
-0.057408851 0.20098612 1.6823592
-0.049473848 0.20083326 1.6808844
-0.041609742 0.20096478 1.6818172
-0.033757038 0.20122589 1.6838626
-0.025833718 0.20109706 1.6826736
-0.017904541 0.20078893 1.6800135
-0.0099924663 0.20033826 1.6761903
-0.0021228574 0.20055354 1.6779687
0.0057790931 0.20130606 1.6842721
0.013697993 0.20143816 1.6854136
0.021540195 0.20075867 1.6797944
0.029343767 0.20017995 1.675047
0.037220307 0.20023842 1.6756601
0.045209412 0.20077643 1.6803148
0.053166151 0.20103218 1.682636
0.060699552 0.19982807 1.6727645
0.068779908 0.2004942 1.6785748
0.076945469 0.20124625 1.6851321
0.084362313 0.20008242 1.675671
0.091712043 0.19897138 1.6666723
0.10072251 0.20135488 1.6869704
0.10845191 0.20101672 1.6844908
0.11539197 0.19936077 1.6709849
0.12310491 0.19916578 1.66974
0.13084973 0.19904259 1.6691133
0.13837752 0.19862173 1.6660056
0.14575094 0.19803609 1.6615276
0.15548721 0.20055757 1.6831357
0.1615421 0.19831638 1.664785
0.16860408 0.19746086 1.6580694
0.17574354 0.19676742 1.6527176
0.18329911 0.19657867 1.6516082
0.1893862 0.19489399 1.6379293
0.19716297 0.1950115 1.6393943
0.20524918 0.19541483 1.6432623
0.2133107 0.1957664 1.6466948
0.22123188 0.19596918 1.648872
0.22845884 0.19556409 1.6459274
0.23512065 0.19471727 1.6392529
0.24307373 0.19495957 1.6417347
0.2512559 0.19536513 1.6455795
0.25907448 0.19547239 1.6468968
0.26636785 0.19518855 1.6449002
0.27388096 0.19507714 1.6443355
0.28119013 0.19483048 1.6426071
0.28882831 0.19481881 1.6428339
0.29593903 0.19446117 1.6401148
0.30227119 0.19362278 1.6333094
0.31137073 0.19455475 1.6414047
0.31935033 0.19475903 1.6433268
0.32612625 0.19423683 1.6390809
0.33288148 0.19372649 1.6348937
0.33944854 0.19313191 1.6299522
0.34655628 0.19286425 1.6277235
0.35516092 0.19342326 1.6324236
0.36497971 0.19460621 1.642338
0.37240878 0.19449256 1.6412551
0.3807703 0.19486068 1.644181
0.38697636 0.19413297 1.6378007
0.396642 0.19513541 1.645954
0.40398133 0.19497703 1.6442482
0.41108111 0.19471109 1.6415681
0.41761303 0.19419084 1.636674
0.42477012 0.1939747 1.6342708
0.43324071 0.19435546 1.6368179
0.43930179 0.19366081 1.6302295
0.44788089 0.19408099 1.6329426
0.45498353 0.19385798 1.6301564
0.46248981 0.19381149 1.6287661
0.47206971 0.19462138 1.6344751
0.48117667 0.19521359 1.6382511
0.48725814 0.19457899 1.6316315
0.49072152 0.19293472 1.6164581
0.5017947 0.19428685 1.626285
0.51367164 0.19590497 1.6382043
0.5237729 0.19680811 1.6440098
0.53277379 0.19727755 1.6460615
0.53624761 0.19571626 1.6310592
0.5429014 0.1953433 1.6258562
0.55341542 0.19635035 1.6320053
0.56696814 0.19839303 1.6465961
0.57567656 0.19870815 1.6466857
0.57994884 0.19750409 1.6340616
0.58744466 0.19741514 1.6305424
0.60027587 0.19909814 1.6414948
0.61716819 0.20206748 1.6628382
0.61636299 0.19924064 1.6363387
0.62440437 0.19930848 1.6335137
0.63590705 0.20046584 1.6394538
0.64497149 0.20083563 1.6387827
0.65364581 0.20107648 1.6369087
0.66003293 0.20061634 1.6291964
0.6673305 0.20044056 1.6236767
0.68157256 0.20233043 1.6347317
0.69054914 0.20263161 1.632792
0.69851327 0.20263222 1.6283226
0.70882946 0.20330743 1.6291736
0.72203338 0.20478663 1.6363506
0.73154211 0.20519674 1.6348954
0.75250441 0.20877559 1.6585733
nan nan nan
0.2877138 0.078120351 0.61701101
0.28975251 0.077843405 0.6130656
0.29130378 0.077442668 0.60820246
nan nan nan
nan nan nan
nan nan nan
nan nan nan
0.27071789 0.068397537 0.5306471
0.26998994 0.067543089 0.52301973
0.26536372 0.065739535 0.50820029
0.26717734 0.065550745 0.50601482
0.27983624 0.068001002 0.5243119
0.28517103 0.068641953 0.52877152
0.28360915 0.067626394 0.52061415
0.27883634 0.065871142 0.50691378
-0.90081787 0.20670263 1.5393523
-0.8820613 0.20417 1.5181962
-0.87693352 0.20477508 1.5207115
-0.87292683 0.20565513 1.5255909
-0.86232519 0.20498326 1.5193075
-0.84571242 0.20285738 1.5026273
-0.83677936 0.2025515 1.4998163
-0.82676649 0.20197619 1.4953986
-0.81417698 0.20075485 1.4865937
-0.79990685 0.19909218 1.4749135
-0.788414 0.19809578 1.4685576
-0.77651519 0.19697727 1.4616779
-0.74967641 0.19201063 1.4265749
-0.72907019 0.18855876 1.4030071
-0.71984637 0.1880116 1.401348
-0.71297914 0.18807518 1.4045529
-0.70716131 0.18841964 1.4101547
-0.70168859 0.18886399 1.4167807
-0.69547015 0.18911473 1.4221978
-0.68845409 0.1891515 1.4262081
-0.68242377 0.18946272 1.4324565
-0.67681652 0.18989927 1.4397942
-0.66996151 0.18999131 1.4446232
-0.66188514 0.18973525 1.4468606
-0.65710592 0.19042908 1.4563806
-0.64999485 0.19045502 1.4608091
-0.64329618 0.19060375 1.4661601
-0.63883209 0.19142543 1.4766637
-0.63211221 0.19158225 1.4819959
-0.62540287 0.19174592 1.4873078
-0.6187942 0.1919447 1.492806
-0.61187971 0.19205217 1.4974964
-0.60527104 0.19225939 1.502857
-0.59855694 0.19243772 1.5078801
-0.59260035 0.192867 1.5147551
-0.58551842 0.19293615 1.5186819
-0.58073318 0.1937734 1.5285383
-0.5703963 0.19275597 1.5236293
-0.56994647 0.19509655 1.54515
-0.56263441 0.19511876 1.5482112
-0.55531579 0.19513924 1.5511259
-0.54907709 0.1955449 1.5569756
-0.54350907 0.19620371 1.5647246
-0.53731972 0.19665337 1.5706903
-0.52989745 0.1966581 1.5729812
-0.52177024 0.1963976 1.5730233
-0.51534158 0.19677815 1.5780801
-0.50884229 0.19714248 1.5828959
-0.50258434 0.19761251 1.5884526
-0.49609858 0.19800588 1.5932876
-0.48830768 0.19788234 1.5938561
-0.4802857 0.19765988 1.5935191
-0.47151217 0.19711618 1.5904832
-0.4662112 0.19803007 1.5991112
-0.46034512 0.19872983 1.6059229
-0.45188752 0.19831544 1.6036392
-0.44529849 0.19872099 1.6078949
-0.43748847 0.19858626 1.6076928
-0.42916185 0.19820823 1.6054347
-0.42106873 0.19792643 1.6038723
-0.41269845 0.19750187 1.6010727
-0.40841427 0.19905314 1.6142184
-0.39720297 0.19722314 1.5998715
-0.39062679 0.19766857 1.6039102
-0.38644561 0.199367 1.6180539
-0.380429 0.20016725 1.624849
-0.37272462 0.20009395 1.6244929
-0.36112165 0.1978813 1.6067078
-0.35401896 0.19809321 1.6085521
-0.34791353 0.19888434 1.6150485
-0.3422263 0.19995479 1.6237636
-0.33242789 0.19861726 1.6128777
-0.32517791 0.19877571 1.6140956
-0.31739885 0.19861059 1.6126444
-0.31324962 0.20076385 1.6299772
-0.30670881 0.20145325 1.6353855
-0.298538 0.20107985 1.6321318
-0.29145929 0.20144172 1.6348141
-0.28428826 0.20175749 1.6370921
-0.27772525 0.20253409 1.6430804
-0.26907036 0.20178598 1.6366746
-0.26168394 0.2019732 1.6378343
-0.25379571 0.20177275 1.6358303
-0.2454603 0.20119333 1.6307381
-0.23800218 0.20131892 1.631346
-0.23264861 0.2032918 1.6469054
-0.22497357 0.20330164 1.6465472
-0.21767703 0.20366631 1.6490536
-0.21034297 0.20402136 1.6514739
-0.20237242 0.20376258 1.6489207
-0.19484982 0.20395218 1.649994
-0.18665257 0.20342214 1.6452465
-0.17868465 0.20310719 1.6422418
-0.17199543 0.20428276 1.6512907
-0.16565669 0.20600466 1.6647551
-0.15791564 0.20606655 1.6648082
-0.15035127 0.20637745 1.6668816
-0.1426428 0.20651372 1.6675545
-0.1351133 0.20693989 1.67058
-0.12717815 0.20675898 1.6687182
-0.11894093 0.2060311 1.6624597
-0.11110903 0.2059525 1.6614588
-0.10349128 0.20628893 1.6638244
-0.095694378 0.206294 1.6635364
-0.087968327 0.20646627 1.6646177
-0.080379963 0.20702669 1.6688492
-0.072573118 0.2070846 1.6690528
-0.064797267 0.20725568 1.6701925
-0.056600086 0.2059408 1.6593837
-0.049316682 0.20806156 1.676283
-0.04145423 0.20808071 1.676275
-0.033510283 0.20760393 1.6722997
-0.025656564 0.20756555 1.6718835
-0.017788222 0.20732282 1.6698496
-0.0099543743 0.20741643 1.6705531
-0.002115143 0.20767647 1.6726255
0.0057183215 0.20701593 1.6673123
0.013539832 0.20693603 1.6667037
0.021409139 0.20737766 1.670324
0.029242048 0.20732445 1.6699874
0.037014484 0.20695561 1.6671356
0.044605386 0.20587766 1.6585983
0.052613951 0.2067613 1.6658906
0.060344454 0.20646499 1.6637026
0.068668187 0.20803374 1.6765703
0.076227784 0.20720302 1.6701261
0.083985046 0.20701437 1.6688793
0.091553755 0.20643267 1.6644862
0.099372335 0.20646155 1.6650367
0.10771684 0.2074993 1.6737459
0.11501089 0.20651004 1.6661237
0.12242222 0.2058437 1.6611226
0.13004982 0.20559898 1.6595383
0.13747257 0.20507622 1.6557235
0.14456734 0.20414615 1.6486304
0.1525787 0.20453909 1.6522324
0.16018273 0.2043744 1.6513407
0.16706309 0.20334408 1.6434606
0.17471057 0.20329703 1.6435316
0.18131609 0.20209259 1.6342475
0.18861309 0.20172513 1.6317314
0.19657846 0.20207323 1.6350042
0.2042633 0.20211774 1.6358204
0.21241885 0.20260799 1.6402417
0.22024696 0.20276269 1.6419435
0.22727033 0.20219105 1.6377547
0.23363821 0.20109239 1.6292839
0.24184129 0.20159279 1.6337564
0.25025809 0.2022353 1.6393688
0.25698087 0.20151137 1.6338879
0.26452708 0.2014562 1.6338098
0.27277854 0.20192625 1.6379707
0.2805894 0.20205335 1.6393278
0.28808299 0.20195134 1.6387999
0.29456022 0.20116052 1.6326531
0.30137578 0.20063472 1.6286252
0.30820405 0.20014299 1.6248399
0.31643227 0.20056215 1.6284137
0.32359704 0.20030344 1.626446
0.33083233 0.20009921 1.62488
0.33743688 0.19953117 1.620316
0.34430185 0.19913854 1.6171309
0.35211059 0.19929694 1.6183721
0.36043745 0.19973579 1.6218393
0.36891499 0.20023844 1.6257702
0.37760267 0.20083262 1.6303868
0.38646519 0.20149454 1.6354917
0.39435634 0.20163423 1.6362939
0.40134075 0.20131376 1.6332966
0.40548086 0.19960508 1.6189722
0.41257697 0.19938739 1.6166747
0.42197821 0.20027153 1.6232351
0.43016297 0.20055732 1.6248648
0.43801081 0.20067886 1.6250821
0.44593695 0.20083153 1.6254667
0.45419115 0.20112437 1.6268965
0.46127737 0.20089889 1.6240437
0.46742317 0.20027773 1.6179038
0.47600237 0.20070243 1.6201168
0.48369089 0.20074411 1.619136
0.48831663 0.19953305 1.6079561
0.50298434 0.20239967 1.6295179
0.51148635 0.20273651 1.6305776
0.51985669 0.20301197 1.6310245
0.52184057 0.2008217 1.6115618
0.53184402 0.2017362 1.6169072
0.54596847 0.20416585 1.6342386
0.55002522 0.20281544 1.6211754
0.55807966 0.20295604 1.6199137
0.56769872 0.20365405 1.6229595
0.57342947 0.2029572 1.6147544
0.58501142 0.20432235 1.6228086
0.59455508 0.2049493 1.6248333
0.60017025 0.20422336 1.615993
0.6147216 0.20651798 1.6308882
0.62021619 0.20575055 1.6214356
0.62772375 0.20566165 1.6172032
0.63919938 0.20685907 1.622927
0.64613956 0.20657752 1.6168945
0.65429497 0.2066866 1.6137906
0.66230953 0.20674911 1.610194
0.67360228 0.20782156 1.6143223
0.6833688 0.20840384 1.6145014
0.6948756 0.20949754 1.6185116
0.70212299 0.20929685 1.6124227
0.7113567 0.20968617 1.6108143
0.72896612 0.2125086 1.6277869
0.74445045 0.21465673 1.6394702
nan nan nan
0.28867039 0.08145988 0.61856967
0.29499766 0.082366616 0.62368077
0.29113811 0.080439843 0.60740393
0.28705788 0.078492567 0.59111255
0.29396483 0.079558715 0.59760731
nan nan nan
nan nan nan
0.26848149 0.070497856 0.5259943
0.26320064 0.068431854 0.50963825
0.26510987 0.06825728 0.50751847
0.26685157 0.068043366 0.50523686
0.28100154 0.070967264 0.52636325
0.28486469 0.071262464 0.52810717
0.28659475 0.071023524 0.52603436
0.28526798 0.070038505 0.51858109
-0.88322848 0.21032883 1.5098706
-0.87461489 0.21010032 1.5058877
-0.86280876 0.20909408 1.4966524
-0.8601644 0.21030997 1.5036465
-0.84995365 0.20968108 1.4977875
-0.84172201 0.20953348 1.4957274
-0.83400244 0.20951185 1.4949375
-0.82411724 0.20894071 1.4906096
-0.8129285 0.2080254 1.4842173
-0.80034357 0.20673215 1.475521
-0.78642809 0.20506743 1.4645592
-0.77351934 0.20363578 1.4556385
-0.75413018 0.20045391 1.4345552
-0.73297769 0.19673645 1.4099425
-0.72131318 0.19551739 1.4035289
-0.71303058 0.19519988 1.4038911
-0.70848376 0.19590898 1.4119415
-0.70347035 0.19650215 1.4194477
-0.69610769 0.19644456 1.422501
-0.68879008 0.19639862 1.4258422
-0.68176144 0.19643499 1.4299511
-0.67635459 0.19694434 1.4376491
-0.67129409 0.19756658 1.446295
-0.66358411 0.19741409 1.4493469
-0.6572479 0.1976714 1.4554467
-0.6514563 0.19810003 1.4628314
-0.64438426 0.19814456 1.467373
-0.63855076 0.19857521 1.4747452
-0.63253754 0.19895928 1.4817294
-0.62609398 0.19921526 1.487698
-0.61940843 0.19939934 1.4930491
-0.61230958 0.19945318 1.497329
-0.60522604 0.19951336 1.5015485
-0.59975755 0.20011388 1.5097294
-0.59295255 0.20027775 1.5145066
-0.5880233 0.20108718 1.5240551
-0.58074033 0.20110194 1.5274642
-0.5778836 0.20266941 1.5425594
-0.57175672 0.20311575 1.5490187
-0.56327885 0.20272763 1.5489815
-0.55597728 0.20275822 1.5520048
-0.54894841 0.2028904 1.555676
-0.54209501 0.20309189 1.5597526
-0.53644687 0.20375678 1.5672699
-0.52807337 0.20339066 1.5667341
-0.52015585 0.20319223 1.5673599
-0.51295662 0.2032727 1.5700153
-0.50747925 0.20404786 1.5779263
-0.49988604 0.20398268 1.5792301
-0.49240166 0.20396063 1.5807543
-0.48587173 0.20433927 1.585278
-0.47810802 0.20420276 1.5857009
-0.47049522 0.20412743 1.5864944
-0.46381652 0.20446144 1.5903714
-0.45817295 0.2052701 1.5978502
-0.44830734 0.20418264 1.5904748
-0.44071537 0.20411152 1.5909194
-0.43414861 0.20452091 1.595024
-0.42776933 0.20503448 1.5998609
-0.41969427 0.20473902 1.5983045
-0.41277707 0.20500796 1.601076
-0.40227547 0.20347375 1.5896866
-0.39603987 0.20408025 1.5949475
-0.39039907 0.20502232 1.6027653
-0.38494375 0.20610045 1.611585
-0.37894467 0.20692453 1.6183575
-0.36979789 0.20602839 1.6116152
-0.35884437 0.20406763 1.5964838
-0.35252947 0.20471764 1.601721
-0.34596929 0.20525019 1.6059877
-0.3383421 0.20515931 1.6053271
-0.33070686 0.2050593 1.6045475
-0.32231796 0.20447657 1.5999465
-0.31694195 0.20582284 1.6103976
-0.31248567 0.20784608 1.6261038
-0.30541503 0.20818773 1.6286154
-0.29820669 0.20845054 1.6304752
-0.28801218 0.20658514 1.6156582
-0.27983776 0.20610754 1.6116672
-0.27386501 0.20726985 1.620472
-0.26769805 0.2083469 1.6285825
-0.26134336 0.20933649 1.6359835
-0.25343412 0.20910288 1.6338037
-0.24425447 0.20777418 1.6230521
-0.23604095 0.20720859 1.6182497
-0.22862239 0.20732656 1.6187733
-0.22246899 0.20863906 1.6286099
-0.21460971 0.208388 1.6262304
-0.20862104 0.21000154 1.6383922
-0.20131017 0.21035631 1.6407244
-0.19330363 0.20998345 1.6373786
-0.18709366 0.21161188 1.649635
-0.17735833 0.20922156 1.6305655
-0.17048159 0.21014014 1.6372901
-0.16373798 0.21131688 1.6460268
-0.15711856 0.21277797 1.6569799
-0.14964312 0.21317127 1.6596226
-0.14194472 0.21327259 1.6600013
-0.13440333 0.21363527 1.6624254
-0.12649967 0.21343127 1.6604528
-0.1184659 0.21296662 1.6564691
-0.11063953 0.2128358 1.655099
-0.10302065 0.2131146 1.6569319
-0.095444515 0.21353441 1.6598788
-0.087831467 0.21393882 1.6627252
-0.079979502 0.21378338 1.6612412
-0.072241232 0.2139311 1.6621356
-0.064116895 0.21283299 1.6533749
-0.056302804 0.21260431 1.6513938
-0.048797786 0.21365587 1.6593807
-0.041282743 0.21505438 1.6700861
-0.032880105 0.21140122 1.6415882
-0.025293671 0.21236619 1.6489793
-0.017671108 0.21374458 1.6596065
-0.0099055478 0.21420249 1.6631131
-0.0020937033 0.2133435 1.6564226
0.0056589474 0.21261191 1.6507488
0.013443468 0.2132313 1.6555916
0.021292789 0.2140484 1.6619972
0.029121825 0.21427824 1.6638701
0.03686446 0.21390954 1.6611222
0.044661537 0.21393028 1.6614251
0.052060835 0.21232262 1.6491055
0.060243528 0.2139125 1.6616471
0.067605793 0.21255869 1.6513466
0.075797684 0.21382351 1.6614139
0.083205141 0.21284592 1.6540806
0.090645425 0.21211185 1.6486591
0.098501362 0.21238932 1.6511205
0.10584756 0.21160731 1.6453639
0.11349643 0.21149546 1.6448355
0.12111523 0.21134542 1.6440263
0.12929846 0.21213937 1.6505771
0.13738932 0.21270074 1.6553344
0.14382893 0.2107822 1.6408031
0.15117106 0.21031384 1.6375662
0.1589518 0.21047138 1.6392119
0.16603687 0.20973569 1.6339072
0.1732979 0.20927717 1.6307653
0.1815889 0.21004874 1.6372133
0.18919829 0.21000136 1.6372819
0.19646616 0.2095933 1.6345379
0.20287462 0.20833324 1.6251441
0.21078512 0.20865084 1.6280522
0.21857131 0.20882766 1.6298562
0.2250531 0.20778821 1.6221585
0.22998674 0.20543353 1.604176
0.23950875 0.20719665 1.6183355
0.24833506 0.20826854 1.6270869
0.253609 0.20638599 1.6127388
0.26038751 0.205801 1.6085074
0.26820534 0.20604722 1.610751
0.27777237 0.20758723 1.6230878
0.28616849 0.20819376 1.628103
0.29239362 0.20723033 1.6208123
0.29850015 0.20623341 1.6132268
0.30610716 0.20629673 1.6139007
0.31427708 0.20672725 1.6174121
0.32225898 0.20701683 1.6197832
0.32910678 0.20658131 1.6164398
0.3348808 0.20550631 1.6080494
0.34230098 0.20546642 1.6077127
0.35166147 0.20656802 1.6162591
0.35768285 0.20570312 1.6093677
0.36521289 0.20572352 1.6093496
0.37643683 0.20778206 1.6252166
0.38502264 0.20833194 1.6292201
0.39239973 0.20821922 1.6279784
0.39892259 0.2076661 1.623229
0.40272647 0.20574446 1.6077195
0.4072887 0.2042734 1.5956689
0.41709375 0.20543744 1.6041294
0.42516407 0.20572108 1.605634
0.43480229 0.20674041 1.6127958
0.44368947 0.20737401 1.6168582
0.45199075 0.20771715 1.6185654
0.45846304 0.20722228 1.6136535
0.46478322 0.20667578 1.6082523
0.47287747 0.20692302 1.608933
0.48174539 0.20749575 1.6120399
0.49689129 0.21071306 1.6355637
0.49278587 0.20579286 1.5958306
0.50813049 0.20902099 1.6191865
0.51393992 0.20828938 1.6117352
0.51850158 0.20708071 1.6004938
0.52885443 0.20818645 1.6070218
0.54091191 0.20992243 1.6182636
0.54787487 0.20966049 1.6139629
0.55243641 0.2084994 1.602628
0.55965555 0.20835924 1.5990247
0.56767803 0.20851786 1.5975811
0.5777815 0.20942663 1.6017359
0.58794361 0.21033269 1.6057082
0.60168159 0.21247821 1.6189597
0.60603815 0.21129835 1.6067197
0.61490685 0.21170154 1.6063893
0.6207698 0.2110727 1.5980937
0.62695581 0.21056777 1.5906196
0.63559973 0.21089061 1.5892689
0.64505816 0.21147273 1.5897281
0.65742326 0.21298279 1.5970027
0.66852474 0.214053 1.6008157
0.68263465 0.21605071 1.611401
0.68546969 0.2144751 1.5952364
0.69403297 0.21470708 1.5924714
0.70699137 0.21627843 1.5995479
0.72095299 0.21811868 1.6085085
0.73549145 0.22009143 1.6183592
nan nan nan
nan nan nan
0.30146796 0.087355562 0.63685304
0.30198702 0.086591884 0.62955678
0.3071478 0.087161206 0.63202286
0.2979643 0.083689965 0.6053251
nan nan nan
nan nan nan
nan nan nan
0.26630706 0.071857281 0.51542115
nan nan nan
nan nan nan
0.27771893 0.072789982 0.52008837
0.28187072 0.073179424 0.52246708
0.2803224 0.072095573 0.51446921
0.28911674 0.073667146 0.52555972
-0.87248611 0.21533984 1.4921122
-0.86098164 0.21436004 1.4829504
-0.85529196 0.21482342 1.4840785
-0.84819609 0.21493876 1.4831132
-0.84190416 0.2152617 1.4839089
-0.83344424 0.21503116 1.4812362
-0.82341844 0.2143887 1.4760908
-0.81803423 0.21495405 1.4796348
-0.80736005 0.21412693 1.4739773
-0.79580516 0.21304846 1.466977
-0.78427672 0.21195665 1.4602712
-0.77281678 0.21086258 1.4539295
-0.7604664 0.20950203 1.4461184
-0.74089682 0.20610662 1.4245911
-0.72375149 0.20332517 1.4075978
-0.71621257 0.2032139 1.4093864
-0.71056604 0.20364273 1.4152306
-0.70409697 0.20384219 1.4197679
-0.69720715 0.20392264 1.4237281
-0.68945682 0.20375051 1.4261373
-0.68398941 0.20425646 1.4334785
-0.67886329 0.20487615 1.4417839
-0.67224175 0.20505303 1.4470987
-0.66598469 0.20534609 1.4533197
-0.65862304 0.20530124 1.4571996
-0.65159273 0.20535983 1.4618311
-0.64441913 0.20537411 1.4661388
-0.63765031 0.20551912 1.4713507
-0.63344139 0.20650202 1.4825311
-0.62665635 0.20665817 1.4877286
-0.62012088 0.20690122 1.493475
-0.61340296 0.20708843 1.4987288
-0.60693294 0.20736484 1.5045303
-0.60028571 0.20758674 1.50983
-0.59349453 0.20776363 1.5146886
-0.58804017 0.20841876 1.5229225
-0.5835008 0.20941886 1.5335745
-0.57846916 0.21026555 1.5430001
-0.56917036 0.20956303 1.5409272
-0.56282049 0.20994209 1.546669
-0.5555101 0.20996813 1.5496835
-0.54801917 0.20992576 1.5520612
-0.5409925 0.21006247 1.5556345
-0.53419381 0.21029273 1.5597763
-0.52739012 0.21052748 1.5638312
-0.51918757 0.21020253 1.563604
-0.51043719 0.20964319 1.5615036
-0.5029074 0.20957612 1.5629462
-0.49632999 0.20990987 1.5672659
-0.49025324 0.21046862 1.573161
-0.48318583 0.21061264 1.5758533
-0.47582895 0.21063305 1.5775158
-0.46895319 0.2108704 1.5807022
-0.46154436 0.21087189 1.5820223
-0.45444423 0.21101674 1.5843225
-0.44415435 0.20966065 1.5752538
-0.43655431 0.20954999 1.5754448
-0.43200091 0.21092302 1.5867097
-0.42467859 0.21096851 1.5879103
-0.41891336 0.21180283 1.5949706
-0.40928513 0.21067895 1.5872053
-0.40299696 0.21126457 1.5922428
-0.39508882 0.211007 1.5908542
-0.38806903 0.2112231 1.5929672
-0.38204801 0.21200185 1.5992593
-0.3729606 0.21107614 1.59263
-0.36491278 0.21071319 1.5901846
-0.3580111 0.21101069 1.5926652
-0.35030773 0.21083833 1.5915443
-0.34363866 0.21129447 1.5951158
-0.33689871 0.21172619 1.5984536
-0.32844639 0.21107696 1.5935836
-0.32018745 0.21052486 1.5894022
-0.31074035 0.20914696 1.578945
-0.30583504 0.21083319 1.5915813
-0.3048737 0.21538961 1.6258436
-0.29367697 0.21276274 1.6058481
-0.28474128 0.21167944 1.5974741
-0.27775803 0.21202847 1.5998803
-0.27210373 0.21343915 1.610268
-0.26697636 0.21535487 1.6244365
-0.26102763 0.21670055 1.6342777
-0.25311503 0.21644771 1.6320417
-0.24346 0.21464299 1.618089
-0.2344594 0.2133183 1.6077441
-0.22669721 0.21307003 1.6055012
-0.22020964 0.21404372 1.6124531
-0.21337165 0.21473365 1.6172546
-0.2040211 0.21285287 1.6026899
-0.19868696 0.2151787 1.6197932
-0.19138382 0.21547173 1.621586
-0.18369295 0.21533443 1.6201385
-0.17606887 0.21526699 1.6192174
-0.16936843 0.21637347 1.6271268
-0.16278993 0.21774709 1.637045
-0.15544984 0.21818732 1.6399485
-0.1483743 0.21906377 1.6461363
-0.14062926 0.21899365 1.6452184
-0.13286527 0.21888416 1.6440167
-0.1252903 0.2190918 1.6452093
-0.11785164 0.21958055 1.6485256
-0.11024587 0.21980463 1.6498696
-0.10264064 0.22006367 1.6514915
-0.095234632 0.22082685 1.6569142
-0.087200522 0.22013983 1.6514746
-0.07924629 0.21954031 1.6467134
-0.071841195 0.22049685 1.6536446
-0.06386742 0.21972828 1.6476606
-0.05615947 0.21978854 1.6479154
-0.048439439 0.21981324 1.6479267
-0.040503614 0.21868224 1.6392995
-0.032795765 0.21854059 1.6381142
-0.025164278 0.21897677 1.6412858
-0.017572895 0.22030009 1.6511315
-0.0098344386 0.22041219 1.6519251
-0.0020827667 0.21996062 1.6485202
0.0056400294 0.21962075 1.6459794
0.013372016 0.21982475 1.6475405
0.021182457 0.22069672 1.6541345
0.029012937 0.22125407 1.6583972
0.036823358 0.22145508 1.6600151
0.044303041 0.21994406 1.6488241
0.051998053 0.21979216 1.6478457
0.05952606 0.219065 1.6425779
0.067662269 0.22048628 1.6534436
0.075050242 0.21942779 1.6457363
0.08245679 0.21861587 1.6398981
0.0896964 0.21753748 1.6320796
0.097409673 0.21768703 1.6334921
0.10514298 0.21785627 1.6350713
0.11248229 0.21724167 1.6307839
0.11999207 0.21701348 1.6294124
0.1281683 0.21794583 1.6367705
0.13641857 0.21889184 1.6442477
0.1427924 0.2168867 1.6295668
0.15028352 0.21669585 1.6285238
0.15765326 0.21635684 1.6263751
0.16493569 0.21593472 1.6236069
0.17229685 0.21564826 1.6218629
0.1806898 0.21662293 1.6296083
0.18896596 0.21738446 1.6357553
0.1956573 0.21633449 1.6282703
0.20237692 0.21539313 1.6215968
0.20854257 0.21395133 1.6111469
0.215322 0.21321771 1.6060196
0.222054 0.21248809 1.6009115
0.23038605 0.21328717 1.6073105
0.24012735 0.21529949 1.6228449
0.24364652 0.21178044 1.5966688
0.25164437 0.2122476 1.6005237
0.25976354 0.21278721 1.6049076
0.26833746 0.21365872 1.6117754
0.27570659 0.2135496 1.611223
0.28072634 0.21167475 1.5973198
0.28748873 0.21117681 1.5937757
0.29567602 0.21172425 1.5980909
0.30344164 0.2119503 1.5999475
0.31191611 0.21264875 1.6053354
0.32034609 0.21328491 1.6102148
0.32728997 0.21292514 1.6075351
0.33303174 0.21181686 1.5991608
0.34128845 0.21232168 1.6029193
0.34959546 0.21283552 1.6066964
0.35716152 0.21288618 1.6069255
0.36336058 0.21213666 1.6010613
0.3725808 0.21314563 1.6084123
0.38109812 0.21372063 1.6124264
0.38891 0.21388549 1.6132817
0.39493901 0.21308212 1.6067705
0.40236768 0.21304978 1.6060069
0.40554148 0.21080688 1.5885147
0.41238385 0.21051723 1.5856749
0.42049211 0.21087261 1.587617
0.42849779 0.21116512 1.589004
0.43962538 0.21295998 1.6016049
0.4478201 0.2132978 1.6031529
0.45515144 0.21322007 1.6014866
0.46210527 0.21297082 1.598441
0.47055987 0.21341018 1.600467
0.47993711 0.2142476 1.6053705
0.48439407 0.21289667 1.5937781
0.49041957 0.21226573 1.5874847
0.49573115 0.21134935 1.5789598
0.50569522 0.21241426 1.5851245
0.51574898 0.2134853 1.5912018
0.52404732 0.21380943 1.5915813
0.53596526 0.21558028 1.6025879
0.53546625 0.21237695 1.5765085
0.55014867 0.21520019 1.5950418
0.55446249 0.21394597 1.5832065
0.56235945 0.21408942 1.581596
0.5719837 0.21487799 1.5846058
0.58796388 0.21800265 1.6046543
0.59870416 0.21912906 1.6097975
0.59984183 0.2167569 1.5891194
0.61056471 0.21786447 1.5938337
0.62049073 0.21866377 1.5961264
0.62554234 0.21774681 1.5857599
0.63101494 0.21699673 1.5765078
0.64067131 0.21768616 1.5775905
