# .PCD v0.7 - Point Cloud Data file format
VERSION 0.7
FIELDS x y z
SIZE 4 4 4
TYPE F F F
COUNT 1 1 1
WIDTH 1612
HEIGHT 1
VIEWPOINT 0 0 0 1 0 0 0
POINTS 1612
DATA ascii
-0.35032758 0.38566628 1.1701151
-0.34300929 0.38387516 1.1669072
-0.33673459 0.38321114 1.1670581
-0.3302618 0.38229513 1.1663768
-0.32446358 0.38214165 1.1679586
-0.31874979 0.3820838 1.1697721
-0.31272376 0.38164288 1.1703501
-0.30578312 0.3800489 1.1673213
-0.29869676 0.37821066 1.1634649
-0.29313028 0.37826329 1.1653565
-0.28931555 0.38062263 1.1743047
-0.28239194 0.37890434 1.1706156
-0.27485436 0.3762759 1.1640368
-0.26944551 0.37651309 1.1662552
-0.26414824 0.37691954 1.1689432
-0.25866339 0.37707007 1.1707835
-0.25353265 0.37775502 1.1742306
-0.24832331 0.37835097 1.1773517
-0.24135692 0.3762356 1.1719781
-0.23638286 0.37719935 1.1761407
-0.23092999 0.37742719 1.1779623
-0.2247996 0.37653163 1.1762272
-0.21922985 0.37655333 1.177308
-0.21267581 0.37484136 1.1729181
-0.20710094 0.37480962 1.1737369
-0.20213248 0.37590387 1.1780417
-0.19655669 0.37589866 1.1788619
-0.19075909 0.37545669 1.1782709
-0.1848937 0.37485066 1.177124
-0.17958036 0.37536091 1.1794449
-0.17468636 0.37680838 1.1846782
-0.16821742 0.37484202 1.1791424
-0.16220441 0.37379202 1.1764504
-0.15669219 0.3738625 1.177251
-0.15115952 0.3738876 1.1778775
-0.14541021 0.37335834 1.1767269
-0.1397339 0.37298208 1.1760285
-0.13475426 0.37451103 1.1813107
-0.12943454 0.37518564 1.1838735
-0.12372216 0.37473145 1.1828493
-0.11815359 0.37469065 1.1831043
-0.11258217 0.37463638 1.1832925
-0.1070739 0.37479749 1.1841381
-0.10163679 0.3752389 1.1858475
-0.096134342 0.37547633 1.1868912
-0.090677448 0.37593177 1.1886039
-0.085235797 0.37651417 1.1906986
-0.079521067 0.37588739 1.1889503
-0.07408084 0.37656152 1.1912977
-0.068695962 0.37764981 1.1949384
-0.06293042 0.37665287 1.1919633
-0.057477605 0.37751579 1.194857
-0.051819853 0.37707359 1.1936035
-0.046223953 0.37702897 1.1935923
-0.040537283 0.37612987 1.1908598
-0.035096314 0.37758729 1.195573
-0.029550668 0.37825805 1.1977808
-0.023643715 0.37353483 1.1828924
-0.018285403 0.37724128 1.194684
-0.012710595 0.37777945 1.1964282
-0.0071209725 0.37837848 1.1983503
-0.0015004887 0.37569737 1.18987
0.0040775831 0.37644011 1.1922193
0.0096771233 0.37716115 1.1944852
0.01531108 0.37820432 1.1977569
0.020875234 0.37742618 1.1952463
0.026478052 0.37752822 1.1955085
0.032051574 0.37724993 1.1945516
0.037658937 0.37739342 1.1949155
0.043179378 0.37674138 1.1927452
0.048590016 0.37539041 1.1883472
0.054649502 0.37881476 1.1990496
0.060190979 0.3783448 1.1974077
0.065920398 0.37903553 1.1994225
0.071599431 0.37935093 1.2002313
0.077625923 0.38132712 1.2062761
0.083306827 0.38145268 1.2064464
0.088174477 0.37807515 1.1955203
0.093652643 0.37756273 1.1936364
0.099028416 0.37671852 1.1906848
0.1045718 0.37656808 1.189905
0.1100844 0.3763276 1.1888194
0.11540046 0.37547091 1.1857651
0.1205919 0.37430623 1.1817167
0.12715796 0.377323 1.190843
0.13261567 0.37693524 1.1891961
0.13835835 0.37735617 1.190074
0.14403786 0.37757862 1.1902976
0.14963616 0.37757963 1.1897939
0.15547319 0.37816113 1.191089
0.16105248 0.37809718 1.1903197
0.16590716 0.37639356 1.1843587
0.17129171 0.37596378 1.1823764
0.17698397 0.37621519 1.1825022
0.18248159 0.37605017 1.1812835
0.18816629 0.37626904 1.1812332
0.1936678 0.37611949 1.1799884
0.20038228 0.37826812 1.1859095
0.20553017 0.37742299 1.1824012
0.21044272 0.37620187 1.1776773
0.21712922 0.37813318 1.1827762
0.22354276 0.37950391 1.1860681
0.22919893 0.37955311 1.1851791
0.23414432 0.37845108 1.1806501
0.24008854 0.3789773 1.1811529
0.24600092 0.37943032 1.181374
0.25143394 0.37914029 1.1792284
0.25689319 0.37890163 1.1771908
0.26242617 0.37877956 1.175462
0.26844478 0.3793489 1.1758213
0.27476108 0.38030699 1.1773224
0.2809729 0.38108471 1.1782002
0.28796363 0.38286743 1.1821154
0.29306403 0.38211647 1.1781435
0.29946524 0.38305801 1.1793277
0.30344892 0.38092959 1.1710054
0.31090474 0.38315806 1.1760141
0.31670037 0.38329723 1.1745378
0.32308167 0.38412777 1.1751143
0.32868904 0.38402542 1.1727731
0.33476764 0.38446769 1.1720343
0.34106395 0.38514102 1.1719368
0.34759718 0.38605526 1.1725081
0.35332805 0.38606325 1.1702695
0.35914323 0.3861616 1.1682557
0.36345699 0.38466778 1.1613892
0.36883691 0.38433114 1.1579889
0.37592971 0.38576242 1.159875
0.38202256 0.38613996 1.1585556
0.38797727 0.3863689 1.1567681
0.39557645 0.38820499 1.1597697
0.40156987 0.38843521 1.1579607
0.40680349 0.38793424 1.1539857
0.41441447 0.38968283 1.1567183
0.42299303 0.39228064 1.1619809
0.43080622 0.39410782 1.1649841
0.4371298 0.39454153 1.1639202
0.44382954 0.39529893 1.1638845
0.45041782 0.39593858 1.16359
0.45691746 0.39648488 1.1631254
0.45671511 0.3912755 1.1459248
nan nan nan
nan nan nan
nan nan nan
nan nan nan
nan nan nan
nan nan nan
nan nan nan
nan nan nan
nan nan nan
nan nan nan
nan nan nan
nan nan nan
nan nan nan
nan nan nan
nan nan nan
nan nan nan
0.27805427 0.19591136 0.57111484
0.27664614 0.19290414 0.56303698
nan nan nan
0.27864233 0.1903602 0.55721271
0.27625763 0.18683866 0.54780298
nan nan nan
nan nan nan
nan nan nan
nan nan nan
nan nan nan
nan nan nan
nan nan nan
nan nan nan
-0.64872545 0.38522935 1.1518162
-0.63884217 0.3826803 1.1434176
-0.64023417 0.38690001 1.1543295
nan nan nan
-0.61768442 0.37998229 1.12879
-0.61059654 0.37902844 1.1231412
-0.60447317 0.37866133 1.1191691
-0.60078371 0.37982616 1.1197207
-0.60096318 0.38348156 1.1276262
-0.59822226 0.38532463 1.1302382
-0.59735745 0.3884227 1.1365896
-0.59551644 0.3909393 1.1413059
-0.58422899 0.3872433 1.128006
-0.58110881 0.38894147 1.1305518
-0.57547504 0.38897416 1.1283715
-0.56619728 0.38651988 1.1191218
-0.56242418 0.38781187 1.1208622
-0.55993903 0.39002717 1.1253966
-0.55491096 0.39049864 1.1250359
-0.54888713 0.3902719 1.1228178
-0.54216713 0.38954014 1.1193115
-0.54106379 0.39287126 1.1276382
-0.53854489 0.39523485 1.1333445
-0.53216851 0.394788 1.1311661
-0.52520728 0.39389277 1.1278905
-0.52413619 0.39744413 1.1375325
-0.52703583 0.40411973 1.1562998
-0.51616436 0.40026751 1.1451401
-0.51024431 0.40021068 1.1450396
-0.5006808 0.39726168 1.1368629
-0.4942995 0.39679801 1.1359944
-0.48950905 0.39761552 1.138991
-0.48558173 0.39916217 1.1442738
-0.47916201 0.39867273 1.1439102
-0.47292393 0.39832422 1.1441303
-0.46568903 0.39711702 1.1420521
-0.45882273 0.39619759 1.1409564
-0.45277885 0.39597392 1.1420114
-0.44792572 0.39679933 1.1462342
-0.440267 0.39512846 1.1433678
-0.43158102 0.39247894 1.1377592
-0.42349803 0.39031386 1.1336262
-0.42335242 0.39550495 1.1509584
-0.41621238 0.3942149 1.1495209
-0.40861982 0.39245412 1.1467471
-0.40264606 0.39222002 1.1484632
-0.39769897 0.39299366 1.1531619
-0.39190251 0.39293838 1.1554487
-0.38486966 0.39162341 1.1540277
-0.37726238 0.38967541 1.1507163
-0.3716847 0.38979614 1.1534882
-0.36622256 0.3900438 1.1566159
-0.3603591 0.38986501 1.1584502
-0.35311511 0.38816306 1.1557114
-0.34732053 0.38802469 1.1575767
-0.34165394 0.38802713 1.1598159
-0.33496791 0.38685229 1.1584806
-0.32877085 0.38621157 1.1586828
-0.3228721 0.385905 1.1598278
-0.3169038 0.3855029 1.1606262
-0.31073675 0.38484013 1.1605762
-0.30401605 0.38345465 1.1582782
-0.29747 0.38224155 1.1564294
-0.29179272 0.38211975 1.1578169
-0.28658447 0.38261935 1.1610301
-0.2803396 0.38172737 1.1599598
-0.27343819 0.37988701 1.155938
-0.26765671 0.37955853 1.1564503
-0.26309967 0.38098928 1.1622703
-0.25672933 0.37979934 1.1600406
-0.25166243 0.38052768 1.1636136
-0.24727553 0.38234025 1.170457
-0.23997733 0.37963119 1.1634027
-0.23384276 0.37867829 1.1616673
-0.22850363 0.37899849 1.1637856
-0.22482234 0.38215265 1.1745672
-0.21834986 0.38060212 1.170846
-0.2120709 0.37931672 1.1678864
-0.20564789 0.3776978 1.1638477
-0.19997831 0.37741148 1.1638676
-0.19561815 0.37965024 1.1716369
-0.1902926 0.38009134 1.1738238
-0.18376388 0.3780835 1.1684049
-0.17787455 0.37730753 1.1667492
-0.17282613 0.37832278 1.1705961
-0.16741443 0.37858349 1.1720753
-0.16174434 0.37825781 1.1717045
-0.15585017 0.37736648 1.1695465
-0.15044725 0.37764287 1.1709746
-0.1447359 0.37713671 1.169945
-0.13892666 0.37632522 1.1679367
-0.13308388 0.37535232 1.1653969
-0.12845629 0.37787038 1.1736698
-0.12322965 0.3787733 1.1769035
-0.1176138 0.37850857 1.1764842
-0.11210076 0.37856492 1.1770378
-0.10644527 0.37812108 1.1760119
-0.10112227 0.37887442 1.1786865
-0.095266342 0.37760264 1.1750382
-0.089784257 0.37774739 1.1757755
-0.084241055 0.37763712 1.175698
-0.079153486 0.37969697 1.1823583
-0.07342498 0.37876111 1.179671
-0.068009265 0.37941772 1.1819245
-0.062644795 0.38050213 1.1854931
-0.057095565 0.3805663 1.1858655
-0.051589537 0.38096321 1.1872576
-0.045933045 0.38021076 1.1850502
-0.040419843 0.38060042 1.1863863
-0.034832325 0.38030303 1.1855642
-0.029066885 0.37758166 1.1771688
-0.023572283 0.37792757 1.1783199
-0.018141197 0.37981501 1.1842622
-0.012609294 0.38032493 1.1858941
-0.0070215734 0.37862828 1.1806306
-0.0014951952 0.37992233 1.1846775
0.004056131 0.38001138 1.1849514
0.0096316943 0.38095608 1.1878785
0.015177582 0.380465 1.1863134
0.020701556 0.37983516 1.1843003
0.026251715 0.37985039 1.1842831
0.031851999 0.38045913 1.1861008
0.037306871 0.37940809 1.1827282
0.042801131 0.37897775 1.1812744
0.048653122 0.38145062 1.1888531
0.054359812 0.38239318 1.1916443
0.059950564 0.38242048 1.1915655
0.065385878 0.3815361 1.1886286
0.071309537 0.38341638 1.194286
0.076643765 0.3820844 1.1899184
0.082421064 0.38299209 1.1925067
0.088112399 0.38341027 1.1935499
0.093259476 0.38155183 1.1874862
0.098404922 0.37989667 1.1820365
0.10381131 0.37937185 1.1800836
0.10964809 0.38039327 1.1829175
0.11471222 0.37876508 1.1774886
0.11980289 0.3773703 1.1727638
0.12524343 0.37715179 1.1716713
0.13195524 0.38061863 1.181998
0.13773932 0.38123736 1.1834476
0.14358255 0.38196537 1.1852064
0.14905386 0.38168645 1.1838109
0.15471363 0.3818928 1.18389
0.16035275 0.38203567 1.18374
0.16508071 0.38007113 1.1770302
0.17055809 0.3799037 1.1758558
0.17645326 0.38064811 1.1774673
0.18193799 0.38048857 1.1762453
0.18721686 0.37992084 1.1737252
0.19313075 0.38063732 1.1751335
0.19885442 0.38094929 1.1752506
0.20415205 0.38045034 1.1728247
0.20957676 0.38020834 1.1711502
0.21418487 0.37853569 1.1650293
0.22034957 0.37962896 1.1673774
0.22702202 0.38152185 1.1721295
0.23271304 0.3817142 1.1716032
0.23866367 0.38231349 1.1722735
0.24428979 0.38237736 1.1712493
0.25039986 0.38317895 1.1724299
0.25611889 0.38336021 1.1716554
0.26122701 0.38263881 1.1680698
0.26689854 0.38275561 1.1669891
0.27340525 0.38404083 1.1694089
0.27959767 0.38484171 1.1702881
0.28512308 0.38471103 1.1682729
0.29100823 0.3850615 1.167659
0.29709923 0.38566577 1.1677516
0.30354601 0.3867009 1.169081
0.30869544 0.38607559 1.1653292
0.31491455 0.38678652 1.1655514
0.32042748 0.38662034 1.1630691
0.32579362 0.38628584 1.1600263
0.331305 0.38613206 1.1574727
0.33866546 0.38810244 1.1612235
0.34662503 0.39068311 1.1667242
0.35281807 0.39122143 1.1660597
0.35742089 0.39000732 1.1601329
0.36137179 0.3881312 1.1522166
0.36741653 0.38852721 1.1510216
0.37423784 0.38971972 1.1521506
0.38041359 0.39021438 1.1511873
0.38735193 0.39146519 1.1524339
0.39363527 0.39202723 1.151641
0.39912474 0.39179379 1.1485196
0.40470496 0.39165482 1.1456988
0.41224593 0.39339086 1.1483871
0.4213337 0.39653483 1.1552033
0.42905897 0.39832866 1.1581186
0.43533227 0.39874446 1.1570909
0.44047046 0.39812344 1.1531459
0.44869077 0.40026799 1.1573091
0.45351097 0.39936325 1.152769
0.45720965 0.39750645 1.1456264
nan nan nan
nan nan nan
nan nan nan
nan nan nan
nan nan nan
nan nan nan
nan nan nan
nan nan nan
nan nan nan
nan nan nan
nan nan nan
nan nan nan
nan nan nan
nan nan nan
nan nan nan
nan nan nan
nan nan nan
nan nan nan
nan nan nan
0.282599 0.19592564 0.56575364
0.28820327 0.19780752 0.57216936
nan nan nan
nan nan nan
nan nan nan
nan nan nan
nan nan nan
nan nan nan
nan nan nan
nan nan nan
nan nan nan
nan nan nan
nan nan nan
nan nan nan
-0.61433786 0.38344473 1.1243238
-0.6103068 0.38438329 1.1243778
-0.60163826 0.38239148 1.1157304
-0.59529924 0.3818571 1.1113149
-0.59257162 0.38365093 1.1136872
-0.5904184 0.38585392 1.1172768
-0.59057915 0.3896254 1.1254476
-0.58913374 0.39239934 1.1307877
-0.57467031 0.38647234 1.1111809
-0.5750491 0.39050847 1.1203457
-0.57198209 0.39226127 1.1230434
-0.56514549 0.39143816 1.1184858
-0.55899459 0.39107808 1.1153888
-0.55481249 0.39210218 1.1163723
-0.55237114 0.39439014 1.121081
-0.54252434 0.39138329 1.1108897
-0.53749269 0.39182347 1.1106462
-0.53859985 0.39679551 1.123389
-0.53560299 0.39881831 1.1279256
-0.52883887 0.39804938 1.124735
-0.52387619 0.39863443 1.125548
-0.52020955 0.40022942 1.129391
-0.51687092 0.40211549 1.1342368
-0.50733286 0.39916652 1.125635
-0.50215054 0.39961636 1.1268117
-0.4966093 0.39978763 1.1273962
-0.49113598 0.40001827 1.1283419
-0.48835546 0.40247366 1.1357591
-0.48320225 0.40300906 1.1379538
-0.47636455 0.40213546 1.1363573
-0.46953616 0.40124834 1.1349005
-0.46138772 0.39919701 1.1303171
-0.45647633 0.39993 1.1337798
-0.45173547 0.40083298 1.1378869
-0.44504297 0.40000522 1.1372263
-0.43574563 0.39678389 1.1298769
-0.43058041 0.39728951 1.1332473
-0.42266005 0.39523247 1.1294062
-0.41692498 0.39519051 1.1314049
-0.4131487 0.39702991 1.1388783
-0.40677911 0.39639378 1.139322
-0.39957839 0.39491808 1.1373918
-0.39120924 0.39222834 1.1319788
-0.38697568 0.39366692 1.1384984
-0.38079548 0.39313847 1.1393497
-0.37516409 0.39316919 1.1418222
-0.36922812 0.39287686 1.1433495
-0.36347833 0.39277658 1.145419
-0.3567217 0.39156792 1.1442266
-0.35013801 0.39051333 1.1434423
-0.34448358 0.39047769 1.1456001
-0.33820474 0.38972127 1.1455992
-0.33173206 0.38871223 1.1448021
-0.32532829 0.38775069 1.1440862
-0.31856522 0.38631985 1.1419227
-0.31458238 0.38826966 1.1497022
-0.30865169 0.38784233 1.150396
-0.30079773 0.38493809 1.1436708
-0.29540309 0.38513115 1.1460779
-0.29032332 0.38574988 1.1496986
-0.2847015 0.38565844 1.1511476
-0.27850777 0.38477334 1.1501659
-0.27181599 0.38315019 1.1469104
-0.2654615 0.38194516 1.1448381
-0.26089588 0.38331735 1.150436
-0.25488135 0.38257405 1.149632
-0.24894501 0.38191792 1.1490304
-0.24373086 0.38236508 1.1516943
-0.23836157 0.38258389 1.1536202
-0.23315242 0.38307625 1.1563224
-0.22748324 0.38281822 1.1567101
-0.22221744 0.38324311 1.1591132
-0.21683429 0.38348204 1.1609081
-0.21119776 0.38327372 1.1613027
-0.2049794 0.38196993 1.1583291
-0.19847938 0.38005498 1.1534504
-0.19460572 0.38320303 1.1638982
-0.18924707 0.38352528 1.1657302
-0.1828555 0.3817108 1.1610245
-0.17657046 0.38001305 1.1566278
-0.17153555 0.38098338 1.1603132
-0.1662481 0.38143829 1.1623954
-0.16040199 0.38059875 1.1604973
-0.15510854 0.38105753 1.1625239
-0.14943823 0.38059011 1.1616919
-0.14413917 0.38106874 1.163716
-0.13819663 0.37981665 1.1604236
-0.13273594 0.37984022 1.1609979
-0.12673086 0.37824106 1.1565813
-0.12184545 0.37999004 1.1623759
-0.11739359 0.38331923 1.1729838
-0.11186611 0.38329148 1.1732967
-0.10635929 0.38333526 1.173804
-0.1000394 0.38029301 1.1648349
-0.094527885 0.38014936 1.1647179
-0.089153387 0.38057294 1.1663172
-0.083622605 0.38034114 1.1658863
-0.07803037 0.37977782 1.1644176
-0.07287544 0.38141832 1.1696864
-0.067421481 0.38163364 1.1705661
-0.062133655 0.38291103 1.1746849
-0.056765899 0.38389659 1.1778907
-0.051199887 0.38360938 1.1771734
-0.04568224 0.38365898 1.1774712
-0.040221855 0.38426918 1.1794728
-0.034619115 0.38349718 1.177214
-0.028953426 0.38160247 1.1714917
-0.023446158 0.38139713 1.1709383
-0.01798968 0.38214523 1.1732957
-0.012502203 0.38260388 1.1747487
-0.0070031425 0.38315138 1.1764582
-0.0014864155 0.3832092 1.176648
0.0040214495 0.38226634 1.1737492
0.0095227603 0.38215005 1.1733724
0.015049163 0.38275716 1.1752008
0.020590158 0.38331044 1.1768472
0.026102616 0.38321081 1.1764728
0.031562354 0.38250709 1.1742277
0.037101977 0.38283676 1.1751379
0.042798728 0.38449267 1.1801015
0.04843786 0.38531098 1.182476
0.054071836 0.38592425 1.1842031
0.05960989 0.38580248 1.1836561
0.064621188 0.38258281 1.1735878
0.07040213 0.38406762 1.1779323
0.075906813 0.38393888 1.1773077
0.081121996 0.38246262 1.172532
0.087074287 0.38442841 1.1782875
0.092748806 0.38500616 1.1797653
0.097910538 0.38351017 1.1748675
0.10334583 0.38318822 1.1735446
0.1087389 0.38275033 1.171844
0.11405834 0.38210797 1.1694939
0.11924583 0.38110307 1.1660106
0.12471423 0.38104481 1.1653992
0.13063483 0.38231489 1.1688219
0.13746926 0.38604853 1.1797419
0.14284955 0.3855671 1.1777476
0.14775151 0.38387886 1.1720399
0.1538021 0.38518909 1.1754559
0.15897259 0.38428071 1.1720692
0.16402416 0.38315555 1.167991
0.16994245 0.38406247 1.170073
0.17571405 0.3845911 1.1709645
0.18099633 0.38404915 1.1685594
0.18668011 0.38436607 1.1687298
0.19256234 0.38506153 1.1700095
0.19794595 0.38474888 1.1681848
0.20373134 0.38521296 1.1686759
0.20844002 0.38367057 1.1630392
0.21325593 0.38240004 1.1581892
0.22025183 0.38500419 1.1650254
0.22535825 0.38425869 1.1616733
0.23123975 0.38483888 1.162281
0.23741637 0.38587156 1.1642008
0.24317375 0.38619116 1.1639141
0.24794415 0.38496411 1.1589168
0.25409856 0.38589254 1.1603566
0.25970158 0.38596177 1.1591551
0.26548275 0.38628733 1.1586666
0.27178666 0.38734457 1.1603117
0.27774185 0.38787225 1.1603072
0.28326732 0.38779083 1.1584214
0.29034391 0.38979504 1.1626996
0.29549244 0.38918385 1.1591125
0.30157802 0.38980654 1.1591424
0.30777135 0.39054322 1.159447
0.31299436 0.3900443 1.1560255
0.31794566 0.38923028 1.1516212
0.32486784 0.39081553 1.1542577
0.33162385 0.39215016 1.1560862
0.33765098 0.39259273 1.155226
0.34346601 0.39277813 1.1535591
0.35045901 0.39428285 1.1557148
0.3558484 0.39396411 1.1524813
0.36017394 0.39249614 1.145864
0.36566439 0.39232337 1.1430118
0.37334827 0.39447328 1.1468962
0.37960586 0.39507449 1.146251
0.38620535 0.39600846 1.1465604
0.39281878 0.39692941 1.14683
0.39796481 0.39636239 1.142818
0.40334499 0.39604127 1.139552
0.41042745 0.39737728 1.1410927
0.4178853 0.3990351 1.1435981
0.425376 0.40067878 1.1461161
0.42666239 0.3965126 1.1321143
0.43611714 0.39994746 1.1399182
0.44349846 0.40141597 1.1422074
0.447703 0.40000841 1.136439
0.45526415 0.40159756 1.1393234
nan nan nan
nan nan nan
nan nan nan
nan nan nan
nan nan nan
nan nan nan
nan nan nan
nan nan nan
nan nan nan
nan nan nan
nan nan nan
nan nan nan
nan nan nan
nan nan nan
nan nan nan
nan nan nan
0.26469538 0.19202897 0.54464519
0.27240479 0.1955789 0.55549443
nan nan nan
0.28694746 0.20184675 0.57513821
0.29455012 0.20511715 0.58550364
nan nan nan
nan nan nan
nan nan nan
nan nan nan
nan nan nan
nan nan nan
nan nan nan
nan nan nan
-0.63051313 0.38535422 1.1188256
nan nan nan
nan nan nan
nan nan nan
-0.61183655 0.38738218 1.1212938
-0.61526793 0.39308754 1.1352624
-0.60473865 0.38989636 1.1232997
-0.59268552 0.38565472 1.1082681
-0.58714241 0.38560942 1.1053135
-0.58609635 0.38854453 1.1109176
-0.58341366 0.39044017 1.1135821
-0.57579517 0.38903722 1.1069212
-0.56964529 0.38860905 1.1031437
-0.56838709 0.39154214 1.1089979
-0.56769049 0.3949239 1.1161968
-0.56351787 0.39593083 1.1167767
-0.55254102 0.39212915 1.1039331
-0.54914576 0.39368546 1.1063155
-0.54851055 0.3972728 1.1145154
-0.54594415 0.39952135 1.1190747
-0.52914304 0.39129084 1.0944527
-0.53044474 0.39641443 1.1073472
-0.52850962 0.39920294 1.1138493
-0.52611387 0.40170023 1.1196864
-0.52118188 0.40229458 1.120381
-0.51846606 0.40463161 1.1260977
-0.51390767 0.4055669 1.1280874
-0.50565332 0.40357357 1.1221159
-0.49870989 0.40259284 1.1191484
-0.49432635 0.40367982 1.122117
-0.48999071 0.40483192 1.125456
-0.4846442 0.40516618 1.1267115
-0.47978309 0.40591916 1.1293211
-0.4736397 0.40559241 1.1291132
-0.46430752 0.40249333 1.1213624
-0.45796397 0.40194011 1.1208711
-0.45335889 0.40291792 1.124819
-0.44849288 0.40368596 1.1283466
-0.44148242 0.40251854 1.1266134
-0.43558908 0.40235251 1.1278175
-0.42685711 0.39952514 1.121676
-0.42176571 0.40007502 1.1251206
-0.41598141 0.39997363 1.1268374
-0.4097757 0.39945862 1.127474
-0.40453088 0.39987904 1.1308252
-0.39738163 0.39840212 1.1288664
-0.39125252 0.39792001 1.1297643
-0.38515791 0.39745942 1.1307534
-0.37984574 0.39780459 1.1340588
-0.37334514 0.39689675 1.1338023
-0.36685869 0.39597633 1.1335021
-0.36066896 0.39535263 1.1340363
-0.3540982 0.39428481 1.1332726
-0.34797582 0.39369011 1.1338372
-0.34143054 0.39258966 1.1329077
-0.33557636 0.39226046 1.1341621
-0.32937452 0.39150703 1.1341451
-0.32268015 0.39013216 1.1322739
-0.3174029 0.39045268 1.1352714
-0.31066024 0.38894975 1.1329124
-0.30439177 0.38799682 1.132092
-0.29976252 0.38913688 1.1373265
-0.29425207 0.38915434 1.1392318
-0.28844818 0.38877684 1.1399245
-0.2831001 0.389011 1.1423541
-0.27577677 0.38648629 1.1366162
-0.27106035 0.38758668 1.1414778
-0.26527146 0.3871673 1.141811
-0.2593047 0.38646516 1.1412505
-0.25405052 0.38681769 1.1437489
-0.24770449 0.38548657 1.1412115
-0.24209231 0.38526317 1.1418954
-0.23427151 0.38143334 1.1318246
-0.23108695 0.38514963 1.1440936
-0.22649737 0.3866474 1.14974
-0.22079079 0.38626549 1.1497512
-0.2154265 0.38647819 1.151484
-0.21017826 0.38691562 1.153842
-0.20375969 0.38516429 1.1496239
-0.19752511 0.38367379 1.1461318
-0.19301569 0.38554466 1.1526395
-0.18764028 0.38574448 1.154115
-0.18137026 0.38406199 1.1499147
-0.17558339 0.38332987 1.1485162
-0.1704717 0.38407224 1.1514972
-0.16510324 0.38426599 1.1527991
-0.15900324 0.38271224 1.1488205
-0.15355977 0.38268468 1.149386
-0.14803931 0.38245615 1.1493146
-0.14296025 0.383394 1.1527172
-0.1378011 0.38418281 1.1556433
-0.13162285 0.38207841 1.1498345
-0.12652101 0.38305193 1.1532581
-0.12120956 0.38344988 1.1549224
-0.11655374 0.38605681 1.1632162
-0.10980583 0.38164955 1.1503478
-0.10537032 0.38523906 1.1615564
-0.099520423 0.38376755 1.1574824
-0.094089881 0.38383627 1.158029
-0.088698551 0.38408324 1.1590904
-0.083181575 0.38378283 1.1584773
-0.077686265 0.38354728 1.1580379
-0.072248921 0.38358402 1.1583993
-0.066996939 0.38469109 1.1619732
-0.061604962 0.38511938 1.1634775
-0.056338914 0.38649508 1.1678255
-0.050747573 0.38569522 1.1655807
-0.045445263 0.38716429 1.1701742
-0.039975371 0.38741347 1.1710631
-0.03441681 0.38674575 1.169162
-0.028817579 0.38528085 1.1648324
-0.023284024 0.38421342 1.1616865
-0.01781477 0.38387865 1.1607383
-0.012343434 0.38318413 1.1586851
-0.006978103 0.38727865 1.1710961
-0.0014789442 0.38677314 1.1695808
0.0040120347 0.3868627 1.1698476
0.0094675077 0.38540339 1.165414
0.014941205 0.38548309 1.1656172
0.020491755 0.38697138 1.1700623
0.025956983 0.38655975 1.1687453
0.031423952 0.38631326 1.1679102
0.0370127 0.38741469 1.1711323
0.042645223 0.38863009 1.1746802
0.048187993 0.38884276 1.1751785
0.053589661 0.38799018 1.1724389
0.058872234 0.38651463 1.1677985
0.064484186 0.38726878 1.1698757
0.069914043 0.3868967 1.1685309
0.075407162 0.38690349 1.1683099
0.080489911 0.3849467 1.16214
0.085679874 0.38371882 1.1581516
0.091256328 0.38426527 1.1594965
0.097539678 0.38755873 1.1691047
0.10298241 0.38733882 1.1680878
0.10818505 0.38628393 1.1645299
0.11326376 0.38490963 1.1599861
0.11869004 0.38478863 1.1591955
0.12445189 0.38571835 1.1615419
0.13050847 0.38744467 1.1662564
0.13639778 0.38855493 1.1690841
0.14237688 0.38982469 1.1723588
0.14625674 0.38546678 1.1586822
0.15173754 0.38549036 1.1581507
0.15751031 0.38622826 1.1597315
0.16316128 0.38662794 1.1602608
0.16897187 0.38736746 1.1617728
0.17447749 0.38738331 1.161077
0.17973463 0.38686332 1.1587383
0.18464148 0.38564262 1.154266
0.19190377 0.38927004 1.1642596
0.19737437 0.38916183 1.1630312
0.20208405 0.38760009 1.1574202
0.20771228 0.38783613 1.1571376
0.21263149 0.38677034 1.1529282
0.21815112 0.38682288 1.1520091
0.2245592 0.38840953 1.1556072
0.22995177 0.38820571 1.1538255
0.23556741 0.38837928 1.1531162
0.24141569 0.38891965 1.1534427
0.24660514 0.38839823 1.1505686
0.25230238 0.38868192 1.1500274
0.25780028 0.38865286 1.1485065
0.26380831 0.38937807 1.1491574
0.2700884 0.39046675 1.1508189
0.2762191 0.39129999 1.1516641
0.28181738 0.39136106 1.1501768
0.28750739 0.39154467 1.1489922
0.29459071 0.39358288 1.1531837
0.29979244 0.39307809 1.1498616
0.30547133 0.39320603 1.148337
0.31125516 0.39346191 1.14713
0.31674656 0.39334568 1.1447852
0.32222277 0.39321494 1.1423488
0.3311601 0.39724043 1.1519182
0.33769247 0.39829454 1.1527987
0.34288117 0.39775527 1.1490232
0.34661958 0.39557829 1.1404951
0.35176218 0.39504778 1.1366979
0.35837662 0.39616081 1.1376016
0.36423814 0.39642015 1.136027
0.37098113 0.39761627 1.1371179
0.37890574 0.400024 1.141651
0.38449872 0.39993542 1.1390538
0.3906557 0.40042755 1.1381266
0.39725494 0.40135238 1.1384509
0.4025116 0.40091372 1.1349469
0.40715957 0.39988956 1.1298484
0.41441154 0.40141591 1.1320206
0.42020202 0.40150434 1.130211
0.42478803 0.400455 1.125298
0.42998362 0.40000033 1.1221714
0.43921551 0.40326357 1.1295831
0.44606578 0.40428421 1.1308287
nan nan nan
nan nan nan
nan nan nan
nan nan nan
nan nan nan
nan nan nan
nan nan nan
nan nan nan
nan nan nan
nan nan nan
nan nan nan
nan nan nan
nan nan nan
nan nan nan
nan nan nan
nan nan nan
nan nan nan
0.27689242 0.20377 0.5703181
0.28602874 0.20831749 0.58391649
nan nan nan
0.30496004 0.21760608 0.61200649
0.3127636 0.2209366 0.62252927
nan nan nan
nan nan nan
nan nan nan
nan nan nan
nan nan nan
nan nan nan
nan nan nan
nan nan nan
nan nan nan
nan nan nan
nan nan nan
nan nan nan
nan nan nan
nan nan nan
-0.60268897 0.39409053 1.1212822
-0.59355384 0.39170191 1.1117368
-0.58629751 0.39052022 1.1055812
-0.58223164 0.39146131 1.1054436
-0.58052731 0.39402318 1.1099062
-0.57442987 0.39362386 1.106086
-0.56997329 0.39435214 1.1055214
-0.56527376 0.39492485 1.1046118
-0.56381184 0.39779314 1.1102084
-0.55903018 0.39835301 1.1094555
-0.55192477 0.3972517 1.1041975
-0.54467696 0.39602447 1.0987258
-0.54208934 0.39819518 1.1028055
-0.54011834 0.40086851 1.1083893
-0.5282222 0.39615449 1.0936953
-0.52952439 0.40134379 1.1064863
-0.52664888 0.40344402 1.110885
-0.52160996 0.40391454 1.1109447
-0.5178538 0.40539959 1.1139516
-0.5147692 0.40744904 1.1186686
-0.51093966 0.40894818 1.1220399
-0.50084049 0.40540639 1.1117592
-0.49673408 0.40668979 1.114894
-0.49191555 0.40741318 1.1166736
-0.48510787 0.40648678 1.1141151
-0.47908372 0.40620276 1.1135014
-0.47552845 0.40803024 1.1188612
-0.47067031 0.40877068 1.1214255
-0.4634127 0.40741986 1.1184317
-0.45708793 0.40686575 1.1177967
-0.4501009 0.40570059 1.1156485
-0.44320479 0.4045887 1.1138031
-0.43702808 0.40411326 1.1138583
-0.43039694 0.40319973 1.1128449
-0.42473251 0.40317944 1.1144266
-0.41853195 0.40264291 1.1147009
-0.41310543 0.40284649 1.1171324
-0.40961352 0.40496844 1.124992
-0.40283889 0.40385887 1.123964
-0.39625925 0.40291601 1.1234609
-0.39000866 0.40228534 1.1238785
-0.38475695 0.40268153 1.1272099
-0.37807703 0.40157259 1.1263584
-0.37082008 0.39980802 1.1236746
-0.36284474 0.39720303 1.1186162
-0.35559744 0.39532626 1.1155862
-0.35102427 0.39641014 1.1209
-0.34525141 0.39615223 1.1224107
-0.33855364 0.39480734 1.1208115
-0.33300975 0.39478573 1.122934
-0.32780731 0.39517498 1.1261947
-0.32231459 0.39522162 1.1284438
-0.31598854 0.39423037 1.1276832
-0.31002209 0.39366037 1.128075
-0.30284181 0.39150059 1.1238501
-0.29878166 0.39336917 1.1311378
-0.29374698 0.39400074 1.1348298
-0.28789252 0.39353579 1.1353115
-0.28032851 0.3906703 1.1287993
-0.2748116 0.39060038 1.1302977
-0.27027324 0.39194682 1.1358461
-0.26119453 0.38662821 1.1220088
-0.25705063 0.38854378 1.1290983
-0.25129166 0.38804811 1.1291327
-0.24699026 0.38983113 1.1357496
-0.23978716 0.38701135 1.1289009
-0.23503467 0.38810784 1.1334184
-0.22923632 0.38748845 1.1328762
-0.22474167 0.38909611 1.1387982
-0.21954703 0.38954157 1.141277
-0.21399841 0.38936567 1.1418881
-0.20836926 0.38903028 1.1419835
-0.20279786 0.38878757 1.1423042
-0.19664413 0.38738433 1.1391664
-0.19080475 0.3865383 1.1376189
-0.18594302 0.38768128 1.1418841
-0.18052229 0.38769239 1.1427776
-0.17481098 0.38706082 1.1417358
-0.16982852 0.38805434 1.1454501
-0.16407247 0.38728738 1.1439313
-0.15849765 0.38691047 1.1435263
-0.1527907 0.38617289 1.1420187
-0.14714509 0.38554198 1.1407903
-0.14224596 0.38689339 1.1453959
-0.13714078 0.38776907 1.1485648
-0.13118678 0.38621807 1.1445142
-0.12601098 0.38692316 1.1471183
-0.12113526 0.38865438 1.152739
-0.11508358 0.38659805 1.1470977
-0.10951783 0.38605165 1.1459063
-0.10391659 0.38531712 1.144129
-0.098867871 0.38666287 1.1485039
-0.093427688 0.38654497 1.1485078
-0.087804079 0.38560691 1.1460503
-0.082805902 0.38747257 1.151903
-0.077381268 0.38746434 1.1521639
-0.071957275 0.38745841 1.1524094
-0.066596761 0.38782114 1.15373
-0.061067756 0.38718003 1.1520433
-0.055539455 0.38641897 1.1499784
-0.050241455 0.38726881 1.1526878
-0.044902973 0.38797444 1.1549489
-0.039582804 0.38905415 1.1583053
-0.034098763 0.38861078 1.1571081
-0.028454361 0.38582474 1.148916
-0.023119213 0.38690901 1.1522303
-0.01768475 0.38648617 1.1510382
-0.012277388 0.38654387 1.1512594
-0.0068964004 0.3881771 1.1561553
-0.0014706471 0.39006251 1.1617848
0.003989723 0.39017209 1.162107
0.0094297556 0.38931531 1.159533
0.014868186 0.38904423 1.1586857
0.020358225 0.38990685 1.1611969
0.025827546 0.39009187 1.1616715
0.031240316 0.38950723 1.1598361
0.036806993 0.39073017 1.1633641
0.042432953 0.39218464 1.1675618
0.047747869 0.39076033 1.1631701
0.053210642 0.39071453 1.1628624
0.058620811 0.39032695 1.1615179
0.063913912 0.38929242 1.1582289
0.069331616 0.38911968 1.1574838
0.07476519 0.38905478 1.1570381
0.07997898 0.38793263 1.1534272
0.085208029 0.38702235 1.1504257
0.090728574 0.38746589 1.1514256
0.096756101 0.38990232 1.1583216
0.10260864 0.39141116 1.162434
0.10756795 0.38953236 1.1564608
0.11225877 0.38690951 1.1482573
0.1181596 0.38850647 1.1525518
0.12413871 0.39020899 1.1571276
0.12991983 0.39117193 1.1594785
0.1356194 0.39182144 1.1608688
0.14055328 0.39029425 1.1557806
0.14577918 0.38966179 1.1533138
0.15132637 0.3899028 1.1534005
0.15643285 0.38903108 1.1501632
0.16162553 0.3884252 1.1476796
0.16729169 0.3889595 1.1485296
0.17297089 0.38948959 1.1493287
0.17836827 0.38937202 1.1481776
0.18388611 0.38951656 1.1477607
0.19014426 0.39117581 1.1517626
0.19614363 0.3922247 1.1539201
0.2010528 0.39109585 1.1496277
0.20610338 0.39029461 1.1462593
0.21202834 0.39114773 1.1477045
0.2178629 0.39179531 1.1484965
0.22363733 0.3923057 1.1488354
0.22903207 0.39214149 1.1471496
0.23427027 0.39172319 1.1446726
0.2392879 0.39096367 1.141152
0.24585637 0.39271533 1.1449064
0.25134456 0.39270252 1.1434581
0.2568818 0.39276531 1.1421767
0.26257172 0.39305398 1.1414975
0.26819703 0.39323607 1.1404526
0.27386501 0.39347216 1.1395081
0.28012139 0.39452758 1.1408764
0.28668553 0.39596739 1.1432911
0.29240552 0.39620867 1.1421835
0.29803386 0.39631915 1.1406437
0.3037205 0.39650172 1.1392577
0.30913287 0.39632604 1.1367912
0.31385046 0.39528152 1.1317899
0.32031113 0.39643055 1.1330223
0.32605794 0.39667195 1.13161
0.33402392 0.39955992 1.1376913
0.3403624 0.40043795 1.1379933
0.34403735 0.39820457 1.1294302
0.3501662 0.39883748 1.1289808
0.35563514 0.39871064 1.1263601
0.36264062 0.40028372 1.1285229
0.36991489 0.40210122 1.131353
0.37717363 0.40384755 1.13397
0.38335243 0.40440309 1.1332477
0.38902637 0.4044176 1.1310344
0.3955991 0.40535271 1.13143
0.39857244 0.40262535 1.1216648
0.40553364 0.40394628 1.1232499
0.41277772 0.40550876 1.1255693
0.41844925 0.405505 1.1236246
0.42311811 0.40454265 1.1191316
0.4283849 0.40416983 1.1163911
0.43498415 0.40504757 1.1172305
0.44488001 0.40893292 1.1264874
0.4422546 0.40135622 1.1043304
nan nan nan
nan nan nan
nan nan nan
nan nan nan
nan nan nan
nan nan nan
nan nan nan
nan nan nan
nan nan nan
nan nan nan
nan nan nan
nan nan nan
nan nan nan
nan nan nan
nan nan nan
nan nan nan
nan nan nan
0.28557065 0.21093608 0.5836646
nan nan nan
nan nan nan
nan nan nan
nan nan nan
nan nan nan
nan nan nan
nan nan nan
nan nan nan
nan nan nan
nan nan nan
nan nan nan
nan nan nan
nan nan nan
nan nan nan
nan nan nan
nan nan nan
nan nan nan
-0.6048823 0.4010604 1.1271015
-0.59010696 0.39487755 1.1071039
-0.58031487 0.39194515 1.0961567
-0.57704288 0.39340264 1.097463
-0.57553083 0.39609912 1.1022189
-0.57212305 0.39753008 1.1034817
-0.56841427 0.39877766 1.1042957
-0.56372023 0.39935154 1.1033237
-0.56001133 0.40064159 1.1044195
-0.55549741 0.40137574 1.1040778
-0.55376589 0.40415531 1.1094562
-0.5512777 0.40643358 1.1135495
-0.53641301 0.39954025 1.0926616
-0.53078926 0.39945817 1.0905639
-0.5297879 0.40288964 1.0981761
-0.52668124 0.40477589 1.101693
-0.52345175 0.40660706 1.1051902
-0.5184989 0.40712479 1.1052588
-0.51380271 0.40785769 1.1060628
-0.5099445 0.40927932 1.1088891
-0.50457096 0.40950307 1.1086304
-0.49903813 0.409601 1.1081998
-0.49263799 0.40898123 1.1060005
-0.48703715 0.40901831 1.1057538
-0.48156902 0.40916911 1.1059916
-0.47442114 0.40787929 1.1025144
-0.46924052 0.40827006 1.1037586
-0.46545929 0.40990275 1.1085401
-0.4622049 0.41204527 1.1148816
-0.45553941 0.41116244 1.113214
-0.44494408 0.4066655 1.1019199
-0.43964931 0.40696016 1.1037631
-0.43396378 0.406896 1.1047895
-0.42699844 0.4056145 1.1026539
-0.42236441 0.4065429 1.1066631
-0.41706908 0.40685117 1.109117
-0.41142604 0.40682402 1.1107751
-0.40658483 0.40760005 1.1147346
-0.40138671 0.40803498 1.1178602
-0.39345869 0.40566772 1.1133807
-0.38750055 0.40529236 1.1144224
-0.38119656 0.40453902 1.1144751
-0.37462416 0.40347418 1.113704
-0.36727756 0.4015308 1.1105242
-0.36111614 0.40084344 1.1108254
-0.35550079 0.40075028 1.1127807
-0.34970364 0.400446 1.1141499
-0.34314588 0.39924699 1.1130154
-0.33634645 0.39772302 1.1109467
-0.33105236 0.3979581 1.1137639
-0.32659072 0.39921865 1.1194326
-0.32077235 0.3988356 1.1204658
-0.31342429 0.39650398 1.1159744
-0.30692542 0.39518288 1.1142683
-0.3004396 0.39383101 1.1124194
-0.29429516 0.39288521 1.1116602
-0.29250655 0.39782798 1.1275345
-0.2861439 0.39661992 1.1259437
-0.27886787 0.39407399 1.1204869
-0.27215326 0.3922359 1.1169717
-0.26627591 0.39155445 1.1166873
-0.25963426 0.38969749 1.1129879
-0.25500965 0.39085355 1.1178387
-0.25038087 0.39205304 1.1227708
-0.24457154 0.39141613 1.122394
-0.23930463 0.39163816 1.1244273
-0.23390624 0.39165029 1.1258081
-0.22918734 0.39282772 1.1304922
-0.22368859 0.39269304 1.1313546
-0.21787697 0.39198887 1.130525
-0.21221039 0.39151639 1.1303128
-0.20702831 0.39193645 1.1326306
-0.20144822 0.39160535 1.1327324
-0.19569114 0.39090246 1.1317118
-0.18932661 0.38891187 1.1269132
-0.18430209 0.38963801 1.1299416
-0.17950563 0.39090455 1.1345009
-0.17448409 0.39174414 1.137786
-0.16884544 0.39120772 1.1370363
-0.16269505 0.38941094 1.1325814
-0.15769644 0.39034238 1.1360227
-0.15249158 0.39081112 1.1380847
-0.14674829 0.38988373 1.1360459
-0.14058596 0.38773006 1.1303957
-0.13531788 0.38796979 1.1316878
-0.13111503 0.39140928 1.1422876
-0.1253175 0.39017925 1.1392325
-0.11960257 0.38910758 1.1366074
-0.11447495 0.38993561 1.1395024
-0.10908903 0.38992211 1.1399114
-0.10321008 0.38805357 1.134868
-0.097702928 0.38745481 1.13351
-0.092471763 0.38794452 1.1353104
-0.087049961 0.38764557 1.1347787
-0.081988096 0.38901526 1.1391085
-0.076996297 0.39093262 1.1450213
-0.071590595 0.39087912 1.1451399
-0.066204764 0.39093432 1.1455549
-0.060766172 0.39066008 1.1449822
-0.055251289 0.38979417 1.1426539
-0.049851757 0.38964298 1.142399
-0.044643767 0.39113343 1.1469375
-0.039349712 0.39217618 1.1501445
-0.033847585 0.39114705 1.1472551
-0.028317191 0.38933867 1.1420597
-0.022911537 0.38879997 1.1405689
-0.017591946 0.38983878 1.143687
-0.012254816 0.3912333 1.1478301
-0.0068386612 0.39031452 1.1451677
-0.0014459011 0.38886645 1.1409334
0.0039466261 0.39135918 1.1482427
0.0093731713 0.39239532 1.1512598
0.014790863 0.39243767 1.1513418
0.020232745 0.39292711 1.1527169
0.025646849 0.39278415 1.1522175
0.031069744 0.39280227 1.1521713
0.036391214 0.39172322 1.148888
0.041779213 0.39154682 1.1482327
0.047400899 0.39335006 1.1533619
0.052842572 0.39344239 1.1534535
0.058209911 0.39301559 1.1520025
0.063497588 0.39216959 1.1493022
0.0688399 0.39176747 1.1478817
0.074088424 0.39092892 1.1451616
0.079767853 0.39232367 1.1489602
0.084974125 0.39136177 1.1458338
0.09041544 0.39153284 1.1460012
0.096210957 0.39313179 1.1503221
0.10182706 0.39386615 1.1520854
0.10617393 0.38986537 1.1399759
0.11142935 0.3894259 1.1382576
0.11711112 0.3904483 1.1407843
0.12318555 0.39263228 1.1466724
0.12911323 0.39418417 1.1506807
0.13420759 0.39316931 1.1471652
0.13941281 0.39254546 1.1447619
0.14527518 0.39374942 1.147656
0.15036051 0.39283639 1.144346
0.15474956 0.39023113 1.1360788
0.16063946 0.39145857 1.1389369
0.16632211 0.39211747 1.1401013
0.1718944 0.39248282 1.1403732
0.17758825 0.39309496 1.1413215
0.18316561 0.39342061 1.1413966
0.18825836 0.39271653 1.1384448
0.194469 0.39431867 1.1421343
0.19992958 0.39435405 1.141239
0.20516923 0.39396331 1.1390672
0.2109466 0.39459866 1.1398165
0.21720532 0.39607969 1.142956
0.22291441 0.39651045 1.1430122
0.2281868 0.39616233 1.1407743
0.23236997 0.39398372 1.1332241
0.23778486 0.3939454 1.1317872
0.24445106 0.39593557 1.1361206
0.25038791 0.39668313 1.1368272
0.25595221 0.39682114 1.1357313
0.26123998 0.39653367 1.1333655
0.26676306 0.39660776 1.131981
0.2724717 0.39694926 1.1313051
0.27817464 0.39726916 1.1305121
0.28440782 0.3983193 1.1317387
0.29106352 0.39991009 1.1344379
0.29581818 0.3988784 1.1296443
0.30034712 0.39758551 1.124073
0.30746037 0.3996987 1.1280801
0.3139033 0.40088126 1.1293997
0.31901968 0.40035817 1.125868
0.32500449 0.40092418 1.1253605
0.32985309 0.40009305 1.1208985
0.33665904 0.40162435 1.1230216
0.34268674 0.40219262 1.1224169
0.34803143 0.401954 1.1195409
0.35426763 0.40273631 1.1194953
0.36059174 0.40359285 1.1196448
0.36837196 0.40602827 1.1241628
0.3755385 0.40772444 1.1266278
0.38039893 0.40690374 1.12216
0.3854793 0.40633875 1.1184433
0.39124638 0.4065035 1.1167865
0.39869642 0.40838742 1.1199042
0.40345046 0.40749574 1.1154803
0.41018593 0.40860242 1.1166124
0.41842172 0.41115329 1.1217743
0.42204836 0.4091675 1.1146672
0.42702749 0.40852794 1.1113615
0.43254244 0.40841106 1.1096144
0.43772519 0.40798751 1.107179
nan nan nan
nan nan nan
nan nan nan
nan nan nan
nan nan nan
nan nan nan
nan nan nan
nan nan nan
nan nan nan
nan nan nan
nan nan nan
nan nan nan
nan nan nan
nan nan nan
nan nan nan
nan nan nan
nan nan nan
0.28286496 0.21407488 0.58393586
0.28299153 0.21195659 0.5791142
0.28067276 0.20806883 0.56949878
0.27997419 0.20544881 0.56338614
nan nan nan
nan nan nan
nan nan nan
nan nan nan
nan nan nan
nan nan nan
nan nan nan
nan nan nan
nan nan nan
nan nan nan
nan nan nan
nan nan nan
nan nan nan
nan nan nan
nan nan nan
nan nan nan
nan nan nan
-0.57245684 0.39197448 1.0831447
-0.56441814 0.39010686 1.0753069
-0.56504947 0.39425319 1.0840178
-0.56442124 0.39759171 1.0904901
-0.56216383 0.39983624 1.0939882
-0.55725998 0.40022391 1.0924693
-0.55266649 0.40084437 1.0916727
-0.55136991 0.40389228 1.0975652
-0.54978728 0.40678987 1.1031219
-0.5454129 0.40765992 1.1032722
-0.53641188 0.40505409 1.0941429
-0.52842289 0.40316632 1.0870978
-0.52425647 0.40418598 1.0880233
-0.52143604 0.40627599 1.0919484
-0.51724839 0.40733421 1.0932245
-0.51189959 0.40749094 1.0922194
-0.51032859 0.41069138 1.0995085
-0.50574398 0.41151059 1.1005634
-0.50096714 0.41219008 1.1013979
-0.49422461 0.41124922 1.098065
-0.4889406 0.41151437 1.098119
-0.48354161 0.41168776 1.098096
-0.47694585 0.41083434 1.0955057
-0.47039959 0.41000384 1.09315
-0.46533516 0.41046047 1.0943998
-0.46192592 0.41240594 1.0997941
-0.45866635 0.41453451 1.105853
-0.45037603 0.41211283 1.0999445
-0.44310662 0.41057605 1.0965599
-0.43406084 0.40733296 1.0887717
-0.42764121 0.40650222 1.0875789
-0.42464906 0.40895051 1.0953131
-0.4221555 0.41195035 1.1046835
-0.41662696 0.41202953 1.1063658
-0.40942582 0.41043419 1.1036698
-0.40192121 0.40848619 1.1001244
-0.39686096 0.40900272 1.1033112
-0.3910619 0.40876168 1.104545
-0.38464913 0.40786296 1.1040735
-0.37829745 0.40700355 1.1037658
-0.37163925 0.40578398 1.1025242
-0.36498931 0.40453675 1.1012366
-0.3605487 0.40573758 1.1066442
-0.35572875 0.40654215 1.1110026
-0.34816536 0.40418735 1.10673
-0.34170619 0.40305945 1.1058005
-0.33393675 0.4003239 1.1004338
-0.32914391 0.40112513 1.1047661
-0.32430092 0.40189129 1.1089904
-0.3186762 0.40169832 1.1105455
-0.31193644 0.40006855 1.108089
-0.30539322 0.39863744 1.106132
-0.29893321 0.39726505 1.1042858
-0.29353887 0.39728442 1.1062601
-0.28957048 0.39927074 1.1136769
-0.28222135 0.39658228 1.1080054
-0.27651227 0.39613858 1.1085434
-0.27021587 0.39481899 1.1065738
-0.26410919 0.39372882 1.1051867
-0.25939456 0.39471164 1.1095678
-0.25443849 0.39536083 1.1129669
-0.24939629 0.39590144 1.1160144
-0.24376644 0.39551246 1.1163909
-0.23820692 0.39522254 1.1169943
-0.23315242 0.39577654 1.1199331
-0.22815533 0.39645642 1.1231833
-0.22273505 0.39641616 1.1243461
-0.21682046 0.39547232 1.1228946
-0.21066059 0.39402157 1.1199497
-0.20531863 0.39406487 1.1212006
-0.19994433 0.39404669 1.1222316
-0.19440252 0.39368829 1.1222483
-0.18920647 0.39402965 1.1242162
-0.18419074 0.39477742 1.1273038
-0.17892711 0.39502278 1.1289183
-0.17332242 0.39450711 1.1283169
-0.16724461 0.39284718 1.1243988
-0.16169913 0.39236921 1.1238213
-0.15632471 0.39228782 1.1243416
-0.15103351 0.39241692 1.1254296
-0.14555232 0.39204377 1.1250416
-0.14019226 0.39198095 1.1255097
-0.13474901 0.39167124 1.1252357
-0.12956694 0.39212653 1.1271274
-0.12442508 0.39274785 1.1294668
-0.11908048 0.39275628 1.1300147
-0.11372625 0.39273229 1.1304395
-0.10853532 0.39329764 1.1325332
-0.1030064 0.39263332 1.131058
-0.097423173 0.39167798 1.1287158
-0.091953538 0.39109513 1.1274191
-0.086720869 0.3915104 1.1289744
-0.08149974 0.39203557 1.1308228
-0.076466881 0.39360341 1.135656
-0.071181282 0.3940087 1.1371127
-0.065692589 0.39326417 1.1352278
-0.060379051 0.39352906 1.1362339
-0.055070955 0.39388457 1.1374797
-0.049705964 0.39386585 1.1376233
-0.044401977 0.39438447 1.1392977
-0.03913632 0.39543316 1.1424832
-0.033726551 0.39512792 1.1417365
-0.028203342 0.39312562 1.1360649
-0.022894166 0.39386752 1.1383029
-0.017479997 0.39270458 1.1350157
-0.012136769 0.3928127 1.1353827
-0.0067956233 0.39321163 1.1365702
-0.0014401682 0.39267078 1.135022
0.003903799 0.39245555 1.1343954
0.0093232747 0.39569372 1.1437312
0.014711685 0.39572456 1.1437764
0.020118207 0.39609542 1.1447843
0.025484266 0.39568123 1.1435037
0.030877564 0.39576077 1.1436296
0.036264129 0.39574316 1.1434543
0.041652445 0.39574674 1.1433198
0.04697955 0.39523456 1.1416745
0.052506112 0.39633322 1.1446608
0.057816084 0.39574456 1.1427522
0.063319176 0.39646545 1.1446027
0.068632424 0.3959778 1.1429417
0.07405977 0.39617151 1.1432242
0.07946898 0.39624846 1.1431465
0.084767431 0.39579853 1.1415246
0.089933202 0.39481992 1.1383544
0.095397614 0.39518878 1.1390449
0.10059724 0.39447996 1.1366032
0.10564685 0.39328444 1.1327349
0.11122333 0.39407107 1.1345482
0.11676277 0.39466015 1.1357634
0.12237444 0.39543065 1.1374698
0.1274408 0.39444855 1.1341052
0.13213269 0.39243367 1.1277447
0.13818051 0.39444593 1.1329255
0.14364426 0.39470279 1.133028
0.14826739 0.39271453 1.1266556
0.15385059 0.3933191 1.1276896
0.1594383 0.39389426 1.1286013
0.16543542 0.39541039 1.1321691
0.17152694 0.39704955 1.1360449
0.17663075 0.39637205 1.1332512
0.18092386 0.39396939 1.1254926
0.18656267 0.39455101 1.1262226
0.19304465 0.39683336 1.1317585
0.19852498 0.39698842 1.1311785
0.20393199 0.3969925 1.1301239
0.20970722 0.39769468 1.1310091
0.2160551 0.39942023 1.1347516
0.22202605 0.40038133 1.1362669
0.22675613 0.39911225 1.1314061
0.23217908 0.39909363 1.1300451
0.23716374 0.39833966 1.1265548
0.24238709 0.39801139 1.1242219
0.24939628 0.40056577 1.1299727
0.25417021 0.39949739 1.1254475
0.25948936 0.39931294 1.1233653
0.26491046 0.39928967 1.1216863
0.27139682 0.40084064 1.1243721
0.27664351 0.40053567 1.121796
0.28120491 0.39926946 1.1164845
0.28791186 0.40103987 1.1196132
0.29431266 0.40232587 1.121328
0.29957673 0.40203938 1.1186097
0.30457667 0.40141505 1.1149123
0.31222725 0.40424451 1.1207561
0.31820518 0.40484792 1.1203742
0.32228664 0.40305898 1.1133447
0.32833454 0.40374807 1.1131372
0.33459592 0.40467262 1.1135476
0.34063002 0.40529677 1.1131063
0.34640995 0.40560344 1.1117781
0.35214338 0.40584692 1.1102717
0.35933119 0.40773314 1.1132544
0.36638159 0.40940842 1.1156577
0.3721393 0.40961066 1.1140629
0.37723437 0.40908828 1.1105353
0.38237903 0.40863413 1.1072457
0.38915882 0.40991536 1.1087133
0.40132257 0.41675133 1.1252379
0.39997864 0.40956518 1.1039872
0.4075262 0.41155618 1.1075923
0.41070473 0.40914071 1.099447
0.41953748 0.41234717 1.1065241
0.42504129 0.4122403 1.1048273
0.43092939 0.41250408 1.1042618
0.43493611 0.41098329 1.0990697
nan nan nan
nan nan nan
nan nan nan
nan nan nan
nan nan nan
nan nan nan
nan nan nan
nan nan nan
nan nan nan
nan nan nan
nan nan nan
nan nan nan
nan nan nan
nan nan nan
nan nan nan
nan nan nan
nan nan nan
0.28092295 0.21553965 0.5806486
nan nan nan
nan nan nan
nan nan nan
nan nan nan
nan nan nan
nan nan nan
nan nan nan
nan nan nan
nan nan nan
nan nan nan
nan nan nan
nan nan nan
nan nan nan
nan nan nan
nan nan nan
nan nan nan
nan nan nan
nan nan nan
-0.57134259 0.38927981 1.0675486
-0.56874233 0.39108723 1.0703789
nan nan nan
-0.5611642 0.39313844 1.0709589
-0.56011695 0.39613235 1.0764403
-0.55763203 0.39815724 1.0792583
-0.55393821 0.39934987 1.0798427
-0.54989797 0.40031347 1.0798622
-0.54584366 0.4012858 1.0799758
-0.54414654 0.40402779 1.0849226
-0.5434913 0.40760639 1.0921793
-0.53439969 0.40486637 1.0826064
-0.52616674 0.40272722 1.0747777
-0.52351063 0.40485641 1.078456
-0.52086443 0.40703812 1.0823733
-0.51787555 0.40899542 1.0858008
-0.5115701 0.40834734 1.0824361
-0.50609273 0.40835342 1.0809431
-0.50173861 0.40927586 1.0820121
-0.50288624 0.41475627 1.0952562
-0.49727464 0.41472241 1.0940726
-0.49147707 0.4145309 1.0926284
-0.48546359 0.41415074 1.0908467
-0.48053938 0.41470185 1.0916792
-0.47423846 0.41406393 1.0895464
-0.46774942 0.41324458 1.0871043
-0.46286157 0.41383719 1.0885451
-0.45944938 0.41577959 1.0937053
-0.45264238 0.41465983 1.0909801
-0.44911861 0.41655737 1.0963629
-0.43876284 0.41208622 1.0851461
-0.43209603 0.4110097 1.0830221
-0.42560878 0.41007835 1.0814337
-0.42088297 0.41084203 1.0844662
-0.41930249 0.41473705 1.0959213
-0.41512126 0.41612989 1.1009181
-0.40716326 0.41372308 1.095988
-0.39978129 0.41184315 1.0925571
-0.3942003 0.41179177 1.0940782
-0.38933003 0.41249198 1.0976959
-0.38261986 0.41123486 1.0961885
-0.37596425 0.41000044 1.0948048
-0.36930764 0.40872818 1.093371
-0.36323366 0.40807211 1.0936276
-0.35641971 0.40655181 1.0915977
-0.35274342 0.40861896 1.0992332
-0.34545314 0.40649876 1.0956241
-0.33895352 0.40525591 1.0943731
-0.33348644 0.40522701 1.0963964
-0.32802784 0.40520766 1.0984396
-0.32301816 0.40575165 1.1020005
-0.31713644 0.40519997 1.1025666
-0.30977854 0.40271014 1.0978194
-0.30023545 0.39724049 1.0848801
-0.29778638 0.40112892 1.0974571
-0.29269156 0.40153095 1.1004796
-0.28674561 0.40075862 1.1002418
-0.28003427 0.3988665 1.0968751
-0.27510646 0.39949048 1.1003772
-0.26889962 0.39824504 1.0986813
-0.262658 0.39689645 1.0966427
-0.2578983 0.39777771 1.1007149
-0.25392911 0.39994133 1.1082993
-0.24863955 0.40007392 1.1102149
-0.2428526 0.39939436 1.1098255
-0.23712905 0.39879069 1.1095923
-0.2317782 0.3988004 1.111015
-0.22700281 0.39982417 1.1152171
-0.22179861 0.40012392 1.1173557
-0.21553257 0.39847556 1.114002
-0.20954022 0.39726201 1.1118084
-0.20399764 0.39686006 1.1118351
-0.19863273 0.39679143 1.1127493
-0.19273959 0.39563477 1.1105647
-0.18901438 0.39898878 1.1210036
-0.18401013 0.39975983 1.1241536
-0.17792484 0.39815807 1.1205876
-0.17136085 0.39535257 1.1135828
-0.16567539 0.39445949 1.111917
-0.16072106 0.39530557 1.1151154
-0.15566021 0.39593855 1.1176786
-0.15006803 0.39521691 1.116381
-0.14487308 0.39552692 1.1179615
-0.14013506 0.39715558 1.1232381
-0.13493587 0.39755428 1.1250057
-0.12940003 0.39695325 1.1239115
-0.12424628 0.39752296 1.1260999
-0.11867501 0.39674801 1.1244482
-0.11286798 0.39507496 1.1202176
-0.10834561 0.39795542 1.1288705
-0.10307719 0.39825246 1.1301703
-0.09710969 0.39573309 1.1234475
